-11.933	-9.644	-5.980
-12.055	-9.656	-5.744
-12.178	-9.668	-5.508
-12.301	-9.680	-5.271
-12.490	-9.680	-5.107
-12.615	-9.692	-4.869
-12.804	-9.692	-4.705
-6.901	-11.664	10.414
-7.070	-11.676	10.690
-7.238	-11.688	10.966
-7.469	-11.688	11.166
-7.697	-11.688	11.364
-7.927	-11.688	11.564
-8.214	-11.676	11.685
-8.502	-11.664	11.805
-8.789	-11.652	11.926
-9.074	-11.639	12.044
-9.360	-11.627	12.163
-9.645	-11.615	12.281
-9.930	-11.597	12.400
-10.215	-11.585	12.519
-10.445	-11.585	12.719
-10.726	-11.572	12.833
-10.897	-11.585	13.111
-11.123	-11.585	13.307
-11.293	-11.597	13.585
-11.469	-11.615	13.867
-11.640	-11.627	14.145
-11.756	-11.652	14.505
-11.931	-11.664	14.787
-12.102	-11.676	15.065
-12.278	-11.688	15.346
-12.453	-11.700	15.628
32.253	-13.391	-9.389
31.912	-13.379	-9.222
31.554	-13.367	-9.039
31.314	-13.367	-8.831
30.955	-13.342	-8.649
30.514	-13.318	-8.524
30.173	-13.306	-8.357
29.668	-13.281	-8.306
29.327	-13.269	-8.139
28.918	-13.245	-7.978
28.679	-13.245	-7.769
28.338	-13.232	-7.603
28.163	-13.245	-7.321
27.923	-13.245	-7.113
27.817	-13.269	-6.826
27.641	-13.281	-6.544
27.631	-13.306	-6.147
27.639	-13.342	-5.766
27.647	-13.391	-5.384
27.572	-13.415	-5.061
27.580	-13.452	-4.679
27.588	-13.489	-4.298
27.495	-13.525	-3.958
27.420	-13.550	-3.635
27.245	-13.562	-3.353
27.069	-13.574	-3.071
13.766	-11.871	-8.457
13.339	-11.847	-8.409
13.026	-11.835	-8.267
12.631	-11.810	-8.182
12.153	-11.768	-8.155
11.767	-11.743	-8.078
11.381	-11.713	-8.001
10.985	-11.688	-7.916
10.599	-11.664	-7.840
10.296	-11.646	-7.705
9.877	-11.621	-7.665
9.574	-11.609	-7.531
9.353	-11.609	-7.338
9.132	-11.609	-7.146
8.911	-11.609	-6.954
8.763	-11.621	-6.696
8.542	-11.621	-6.504
8.435	-11.633	-6.217
8.370	-11.664	-5.902
8.231	-11.676	-5.652
8.166	-11.700	-5.336
8.100	-11.725	-5.020
8.035	-11.755	-4.705
7.961	-11.780	-4.381
7.895	-11.810	-4.066
7.830	-11.835	-3.750
7.600	-11.835	-3.550
-8.056	-9.943	-8.833
-8.318	-9.930	-8.734
-8.580	-9.918	-8.636
-8.769	-9.918	-8.471
-9.031	-9.906	-8.373
-9.289	-9.894	-8.278
-9.546	-9.882	-8.184
-9.806	-9.863	-8.088
-10.064	-9.851	-7.993
-10.321	-9.839	-7.899
-10.510	-9.839	-7.734
-10.768	-9.827	-7.640
-10.954	-9.827	-7.478
-11.074	-9.839	-7.244
-11.261	-9.839	-7.082
-11.450	-9.839	-6.918
-11.570	-9.851	-6.684
-11.690	-9.863	-6.450
-11.813	-9.882	-6.214
-11.933	-9.894	-5.980
-12.055	-9.906	-5.744
-12.178	-9.918	-5.508
-12.301	-9.930	-5.271
-12.425	-9.943	-5.035
-12.615	-9.943	-4.869
-12.739	-9.961	-4.632
-6.842	-11.981	10.492
-7.070	-11.981	10.690
-7.179	-12.006	11.044
-7.407	-12.006	11.242
-7.637	-12.006	11.442
-7.927	-11.993	11.564
-8.214	-11.981	11.685
-8.502	-11.969	11.805
-8.789	-11.957	11.926
-9.074	-11.939	12.044
-9.360	-11.926	12.163
-9.645	-11.914	12.281
-9.930	-11.902	12.400
-10.215	-11.890	12.519
-10.445	-11.890	12.719
-10.726	-11.871	12.833
-10.897	-11.890	13.111
-11.123	-11.890	13.307
-11.293	-11.902	13.585
-11.469	-11.914	13.867
-11.640	-11.926	14.145
-11.756	-11.957	14.505
-11.931	-11.969	14.787
-12.102	-11.981	15.065
-12.278	-11.993	15.346
-12.453	-12.006	15.628
32.253	-13.721	-9.389
31.912	-13.709	-9.222
31.655	-13.709	-8.998
31.314	-13.696	-8.831
30.955	-13.684	-8.649
30.514	-13.660	-8.524
30.173	-13.648	-8.357
29.668	-13.623	-8.306
29.327	-13.599	-8.139
28.987	-13.586	-7.973
28.679	-13.574	-7.769
28.421	-13.574	-7.545
28.163	-13.574	-7.321
27.974	-13.586	-7.092
27.817	-13.599	-6.826
27.788	-13.635	-6.413
27.713	-13.660	-6.089
27.639	-13.684	-5.766
27.647	-13.721	-5.384
27.654	-13.770	-5.003
27.580	-13.794	-4.679
27.588	-13.831	-4.298
27.495	-13.867	-3.958
27.420	-13.892	-3.635
27.327	-13.916	-3.295
27.069	-13.916	-3.071
26.811	-13.916	-2.847
14.244	-12.213	-8.485
13.766	-12.176	-8.457
13.339	-12.146	-8.409
12.943	-12.122	-8.325
12.548	-12.091	-8.240
12.153	-12.067	-8.155
11.767	-12.036	-8.078
11.381	-12.012	-8.001
10.985	-11.981	-7.916
10.599	-11.957	-7.840
10.213	-11.926	-7.763
9.877	-11.914	-7.665
9.574	-11.902	-7.531
9.270	-11.890	-7.396
9.049	-11.890	-7.204
8.911	-11.902	-6.954
8.689	-11.902	-6.762
8.542	-11.914	-6.504
8.435	-11.926	-6.217
8.297	-11.945	-5.967
8.231	-11.969	-5.652
8.166	-12.000	-5.336
8.100	-12.024	-5.020
8.035	-12.054	-4.705
7.961	-12.079	-4.381
7.895	-12.109	-4.066
7.747	-12.122	-3.808
7.600	-12.134	-3.550
-7.983	-10.211	-8.767
-8.245	-10.199	-8.668
-8.507	-10.181	-8.570
-8.769	-10.168	-8.471
-9.031	-10.156	-8.373
-9.289	-10.144	-8.278
-9.546	-10.132	-8.184
-9.806	-10.114	-8.088
-10.064	-10.101	-7.993
-10.321	-10.089	-7.899
-10.510	-10.089	-7.734
-10.768	-10.077	-7.640
-10.954	-10.077	-7.478
-11.074	-10.089	-7.244
-11.261	-10.089	-7.082
-11.450	-10.089	-6.918
-11.570	-10.101	-6.684
-11.690	-10.114	-6.450
-11.813	-10.132	-6.214
-11.933	-10.144	-5.980
-12.055	-10.156	-5.744
-12.178	-10.168	-5.508
-12.301	-10.181	-5.271
-12.425	-10.199	-5.035
-12.549	-10.211	-4.798
-12.739	-10.211	-4.632
-12.832	-10.223	-4.357
-6.720	-12.311	10.645
-7.010	-12.299	10.768
-7.117	-12.323	11.119
-7.347	-12.323	11.319
-7.578	-12.323	11.520
-7.867	-12.311	11.642
-8.155	-12.299	11.763
-8.442	-12.286	11.883
-8.789	-12.256	11.926
-9.074	-12.244	12.044
-9.360	-12.231	12.163
-9.645	-12.213	12.281
-9.930	-12.201	12.400
-10.215	-12.189	12.519
-10.445	-12.189	12.719
-10.671	-12.189	12.915
-10.897	-12.189	13.111
-11.123	-12.189	13.307
-11.293	-12.201	13.585
-11.469	-12.213	13.867
-11.640	-12.231	14.145
-11.756	-12.256	14.505
-11.931	-12.268	14.787
-12.047	-12.299	15.146
-12.223	-12.311	15.428
-12.453	-12.311	15.628
32.253	-14.062	-9.389
31.912	-14.050	-9.222
31.554	-14.038	-9.039
31.213	-14.026	-8.873
30.873	-14.014	-8.706
30.514	-13.989	-8.524
30.173	-13.977	-8.357
29.668	-13.953	-8.306
29.327	-13.940	-8.139
28.987	-13.928	-7.973
28.679	-13.916	-7.769
28.421	-13.916	-7.545
28.163	-13.916	-7.321
27.974	-13.928	-7.092
27.817	-13.940	-6.826
27.788	-13.965	-6.413
27.713	-13.989	-6.089
27.639	-14.026	-5.766
27.647	-14.062	-5.384
27.654	-14.111	-5.003
27.662	-14.148	-4.622
27.670	-14.197	-4.240
27.596	-14.221	-3.917
27.503	-14.246	-3.577
27.327	-14.258	-3.295
27.069	-14.258	-3.071
26.729	-14.246	-2.904
13.766	-12.476	-8.457
13.339	-12.445	-8.409
12.943	-12.421	-8.325
12.548	-12.390	-8.240
12.153	-12.366	-8.155
11.767	-12.335	-8.078
11.298	-12.293	-8.059
10.903	-12.268	-7.974
10.517	-12.237	-7.897
10.213	-12.225	-7.763
9.877	-12.207	-7.665
9.574	-12.195	-7.531
9.270	-12.183	-7.396
9.049	-12.183	-7.204
8.828	-12.183	-7.012
8.689	-12.195	-6.762
8.542	-12.207	-6.504
8.435	-12.225	-6.217
8.297	-12.237	-5.967
8.231	-12.268	-5.652
8.083	-12.280	-5.394
8.018	-12.305	-5.078
7.953	-12.335	-4.763
7.887	-12.366	-4.447
7.822	-12.390	-4.131
7.747	-12.421	-3.808
7.600	-12.433	-3.550
-7.983	-10.461	-8.767
-8.245	-10.449	-8.668
-8.507	-10.437	-8.570
-8.769	-10.419	-8.471
-9.031	-10.407	-8.373
-9.289	-10.394	-8.278
-9.546	-10.382	-8.184
-9.806	-10.364	-8.088
-10.064	-10.352	-7.993
-10.321	-10.339	-7.899
-10.510	-10.339	-7.734
-10.768	-10.321	-7.640
-10.954	-10.321	-7.478
-11.143	-10.321	-7.314
-11.261	-10.339	-7.082
-11.450	-10.339	-6.918
-11.570	-10.352	-6.684
-11.690	-10.364	-6.450
-11.813	-10.382	-6.214
-11.933	-10.394	-5.980
-12.055	-10.407	-5.744
-12.178	-10.419	-5.508
-12.301	-10.437	-5.271
-12.425	-10.449	-5.035
-12.549	-10.461	-4.798
-12.641	-10.480	-4.523
-12.767	-10.492	-4.285
-6.659	-12.622	10.721
-6.708	-12.671	11.152
-7.057	-12.634	11.197
-7.288	-12.634	11.397
-7.518	-12.634	11.597
-7.808	-12.622	11.720
-8.155	-12.598	11.763
-8.442	-12.585	11.883
-8.730	-12.573	12.004
-9.074	-12.537	12.044
-9.360	-12.524	12.163
-9.645	-12.512	12.281
-9.930	-12.500	12.400
-10.215	-12.488	12.519
-10.445	-12.488	12.719
-10.671	-12.488	12.915
-10.897	-12.488	13.111
-11.123	-12.488	13.307
-11.293	-12.500	13.585
-11.469	-12.512	13.867
-11.640	-12.524	14.145
-11.756	-12.561	14.505
-11.876	-12.585	14.868
-12.047	-12.598	15.146
-12.223	-12.610	15.428
-12.398	-12.622	15.710
32.069	-14.380	-9.488
31.811	-14.380	-9.264
31.554	-14.380	-9.039
31.213	-14.355	-8.873
30.873	-14.343	-8.706
30.514	-14.331	-8.524
30.091	-14.307	-8.415
29.668	-14.294	-8.306
29.245	-14.258	-8.197
28.918	-14.246	-7.978
28.679	-14.246	-7.769
28.421	-14.246	-7.545
28.163	-14.246	-7.321
27.974	-14.258	-7.092
27.817	-14.270	-6.826
27.788	-14.307	-6.413
27.713	-14.331	-6.089
27.739	-14.380	-5.724
27.747	-14.416	-5.343
27.654	-14.441	-5.003
27.662	-14.490	-4.622
27.670	-14.539	-4.240
27.596	-14.563	-3.917
27.503	-14.587	-3.577
27.327	-14.600	-3.295
27.069	-14.600	-3.071
26.646	-14.575	-2.962
13.642	-12.756	-8.544
13.339	-12.744	-8.409
12.943	-12.720	-8.325
12.548	-12.683	-8.240
12.070	-12.646	-8.213
11.684	-12.610	-8.136
11.298	-12.585	-8.059
10.903	-12.561	-7.974
10.517	-12.524	-7.897
10.099	-12.500	-7.857
9.795	-12.488	-7.723
9.491	-12.476	-7.588
9.270	-12.476	-7.396
8.967	-12.463	-7.262
8.828	-12.476	-7.012
8.607	-12.476	-6.819
8.468	-12.488	-6.570
8.321	-12.500	-6.312
8.297	-12.524	-5.967
8.149	-12.549	-5.709
8.083	-12.573	-5.394
8.018	-12.598	-5.078
7.953	-12.634	-4.763
7.887	-12.659	-4.447
7.822	-12.683	-4.131
7.747	-12.720	-3.808
7.526	-12.720	-3.616
-7.620	-10.742	-8.759
-7.882	-10.730	-8.660
-8.176	-10.718	-8.599
-8.507	-10.687	-8.570
-8.769	-10.675	-8.471
-9.031	-10.657	-8.373
-9.289	-10.644	-8.278
-9.546	-10.626	-8.184
-9.806	-10.614	-8.088
-10.064	-10.602	-7.993
-10.321	-10.583	-7.899
-10.510	-10.583	-7.734
-10.768	-10.571	-7.640
-10.954	-10.571	-7.478
-11.143	-10.571	-7.314
-11.261	-10.583	-7.082
-11.450	-10.583	-6.918
-11.570	-10.602	-6.684
-11.690	-10.614	-6.450
-11.813	-10.626	-6.214
-11.933	-10.644	-5.980
-12.055	-10.657	-5.744
-12.178	-10.675	-5.508
-12.301	-10.687	-5.271
-12.359	-10.718	-4.963
-12.549	-10.718	-4.798
-12.641	-10.730	-4.523
-12.767	-10.742	-4.285
-6.142	-13.049	11.371
-6.372	-13.049	11.571
-6.877	-12.988	11.428
-7.169	-12.976	11.553
-7.459	-12.964	11.675
-7.808	-12.927	11.720
-8.095	-12.915	11.840
-8.442	-12.891	11.883
-8.730	-12.878	12.004
-9.074	-12.842	12.044
-9.360	-12.830	12.163
-9.645	-12.817	12.281
-9.930	-12.805	12.400
-10.215	-12.793	12.519
-10.445	-12.793	12.719
-10.671	-12.793	12.915
-10.897	-12.793	13.111
-11.123	-12.793	13.307
-11.293	-12.805	13.585
-11.469	-12.817	13.867
-11.585	-12.842	14.227
-11.756	-12.854	14.505
-11.876	-12.891	14.868
-12.047	-12.903	15.146
-12.168	-12.927	15.510
-12.343	-12.940	15.792
-12.519	-12.964	16.074
31.987	-14.697	-9.546
31.729	-14.697	-9.321
31.471	-14.697	-9.097
31.112	-14.685	-8.914
30.772	-14.673	-8.748
30.431	-14.661	-8.581
30.091	-14.636	-8.415
29.585	-14.612	-8.364
29.245	-14.600	-8.197
28.918	-14.587	-7.978
28.679	-14.587	-7.769
28.421	-14.587	-7.545
28.163	-14.587	-7.321
27.974	-14.600	-7.092
27.899	-14.624	-6.768
27.788	-14.636	-6.413
27.814	-14.685	-6.047
27.739	-14.710	-5.724
27.747	-14.758	-5.343
27.755	-14.807	-4.961
27.662	-14.832	-4.622
27.670	-14.880	-4.240
27.596	-14.905	-3.917
27.503	-14.929	-3.577
27.327	-14.954	-3.295
27.069	-14.954	-3.071
26.646	-14.917	-2.962
13.642	-13.062	-8.544
13.256	-13.025	-8.467
12.861	-13.001	-8.382
12.466	-12.976	-8.298
12.070	-12.940	-8.213
11.684	-12.915	-8.136
11.206	-12.866	-8.109
10.820	-12.842	-8.032
10.517	-12.830	-7.897
10.099	-12.793	-7.857
9.795	-12.781	-7.723
9.491	-12.769	-7.588
9.188	-12.756	-7.454
8.967	-12.756	-7.262
8.746	-12.756	-7.069
8.607	-12.769	-6.819
8.468	-12.781	-6.570
8.321	-12.793	-6.312
8.214	-12.805	-6.025
8.149	-12.842	-5.709
8.083	-12.866	-5.394
8.018	-12.903	-5.078
7.953	-12.927	-4.763
7.887	-12.952	-4.447
7.822	-12.988	-4.131
7.674	-13.001	-3.874
7.526	-13.013	-3.616
-7.620	-10.998	-8.759
-7.882	-10.980	-8.660
-8.176	-10.968	-8.599
-8.438	-10.950	-8.500
-8.769	-10.925	-8.471
-9.031	-10.907	-8.373
-9.289	-10.895	-8.278
-9.546	-10.877	-8.184
-9.806	-10.864	-8.088
-10.064	-10.852	-7.993
-10.321	-10.834	-7.899
-10.510	-10.834	-7.734
-10.768	-10.822	-7.640
-10.954	-10.822	-7.478
-11.143	-10.822	-7.314
-11.261	-10.834	-7.082
-11.450	-10.834	-6.918
-11.570	-10.852	-6.684
-11.690	-10.864	-6.450
-11.813	-10.877	-6.214
-11.933	-10.895	-5.980
-12.055	-10.907	-5.744
-12.178	-10.925	-5.508
-12.301	-10.937	-5.271
-12.359	-10.968	-4.963
-12.549	-10.968	-4.798
-12.641	-10.980	-4.523
-12.767	-10.998	-4.285
-5.959	-13.391	11.600
-6.313	-13.367	11.649
-6.605	-13.354	11.774
-7.107	-13.293	11.628
-7.459	-13.269	11.675
-7.749	-13.245	11.798
-8.095	-13.220	11.840
-8.442	-13.196	11.883
-8.730	-13.171	12.004
-9.074	-13.147	12.044
-9.360	-13.135	12.163
-9.645	-13.123	12.281
-9.930	-13.098	12.400
-10.215	-13.086	12.519
-10.445	-13.086	12.719
-10.671	-13.086	12.915
-10.897	-13.086	13.111
-11.068	-13.098	13.389
-11.293	-13.098	13.585
-11.469	-13.123	13.867
-11.585	-13.147	14.227
-11.701	-13.171	14.586
-11.876	-13.196	14.868
-11.992	-13.220	15.228
-12.168	-13.232	15.510
-12.343	-13.245	15.792
-12.519	-13.269	16.074
31.987	-15.039	-9.546
31.729	-15.039	-9.321
31.370	-15.027	-9.139
31.030	-15.002	-8.972
30.772	-15.002	-8.748
30.431	-14.990	-8.581
29.926	-14.966	-8.530
29.585	-14.941	-8.364
29.245	-14.929	-8.197
28.918	-14.917	-7.978
28.578	-14.905	-7.811
28.421	-14.917	-7.545
28.163	-14.917	-7.321
27.974	-14.929	-7.092
27.899	-14.966	-6.768
27.889	-14.990	-6.371
27.814	-15.027	-6.047
27.822	-15.063	-5.666
27.747	-15.100	-5.343
27.755	-15.137	-4.961
27.763	-15.185	-4.580
27.670	-15.222	-4.240
27.596	-15.247	-3.917
27.503	-15.271	-3.577
27.327	-15.295	-3.295
27.069	-15.295	-3.071
26.463	-15.234	-3.062
13.560	-13.342	-8.602
13.256	-13.330	-8.467
12.861	-13.293	-8.382
12.466	-13.269	-8.298
11.988	-13.220	-8.270
11.602	-13.196	-8.193
11.206	-13.159	-8.109
10.820	-13.135	-8.032
10.434	-13.098	-7.955
10.099	-13.086	-7.857
9.713	-13.062	-7.780
9.409	-13.049	-7.646
9.188	-13.049	-7.454
8.884	-13.025	-7.319
8.746	-13.049	-7.069
8.524	-13.049	-6.877
8.386	-13.062	-6.627
8.321	-13.086	-6.312
8.214	-13.098	-6.025
8.149	-13.135	-5.709
8.083	-13.159	-5.394
8.018	-13.196	-5.078
7.953	-13.220	-4.763
7.887	-13.257	-4.447
7.822	-13.281	-4.131
7.674	-13.293	-3.874
7.526	-13.318	-3.616
-7.809	-11.249	-8.595
-8.176	-11.218	-8.599
-8.438	-11.206	-8.500
-8.769	-11.175	-8.471
-9.031	-11.157	-8.373
-9.289	-11.145	-8.278
-9.546	-11.127	-8.184
-9.806	-11.114	-8.088
-10.064	-11.102	-7.993
-10.321	-11.084	-7.899
-10.510	-11.084	-7.734
-10.768	-11.072	-7.640
-10.954	-11.072	-7.478
-11.143	-11.072	-7.314
-11.330	-11.072	-7.151
-11.450	-11.084	-6.918
-11.570	-11.102	-6.684
-11.759	-11.102	-6.520
-11.879	-11.114	-6.286
-11.933	-11.145	-5.980
-12.055	-11.157	-5.744
-12.178	-11.175	-5.508
-12.301	-11.188	-5.271
-12.425	-11.206	-5.035
-12.549	-11.218	-4.798
-12.641	-11.237	-4.523
-12.767	-11.249	-4.285
-5.959	-13.709	11.600
-6.313	-13.672	11.649
-6.605	-13.660	11.774
-7.048	-13.611	11.706
-7.399	-13.586	11.753
-7.749	-13.550	11.798
-8.095	-13.525	11.840
-8.442	-13.489	11.883
-8.730	-13.477	12.004
-9.074	-13.452	12.044
-9.360	-13.428	12.163
-9.645	-13.415	12.281
-9.930	-13.403	12.400
-10.215	-13.391	12.519
-10.445	-13.391	12.719
-10.671	-13.391	12.915
-10.897	-13.391	13.111
-11.068	-13.403	13.389
-11.293	-13.403	13.585
-11.409	-13.428	13.945
-11.585	-13.452	14.227
-11.701	-13.477	14.586
-11.822	-13.513	14.950
-11.992	-13.525	15.228
-12.113	-13.550	15.592
-12.288	-13.574	15.874
-12.464	-13.586	16.155
-12.644	-13.599	16.441
31.987	-15.381	-9.546
31.628	-15.356	-9.363
31.288	-15.344	-9.196
31.030	-15.344	-8.972
30.689	-15.332	-8.806
30.330	-15.308	-8.623
29.926	-15.295	-8.530
29.484	-15.271	-8.405
29.176	-15.247	-8.202
28.918	-15.247	-7.978
28.578	-15.234	-7.811
28.338	-15.234	-7.603
28.163	-15.247	-7.321
27.974	-15.271	-7.092
27.899	-15.295	-6.768
27.889	-15.332	-6.371
27.814	-15.356	-6.047
27.822	-15.405	-5.666
27.747	-15.442	-5.343
27.755	-15.479	-4.961
27.763	-15.527	-4.580
27.753	-15.576	-4.183
27.678	-15.601	-3.859
27.585	-15.637	-3.519
27.428	-15.649	-3.254
27.170	-15.649	-3.029
26.646	-15.601	-2.962
13.560	-13.648	-8.602
13.165	-13.611	-8.517
12.779	-13.586	-8.440
12.383	-13.550	-8.355
11.988	-13.525	-8.270
11.519	-13.477	-8.251
11.124	-13.440	-8.166
10.738	-13.415	-8.089
10.434	-13.403	-7.955
10.016	-13.367	-7.915
9.713	-13.354	-7.780
9.409	-13.342	-7.646
9.105	-13.318	-7.511
8.884	-13.318	-7.319
8.663	-13.318	-7.127
8.524	-13.342	-6.877
8.386	-13.354	-6.627
8.321	-13.379	-6.312
8.214	-13.403	-6.025
8.149	-13.428	-5.709
8.083	-13.464	-5.394
7.945	-13.477	-5.144
7.870	-13.501	-4.820
7.887	-13.550	-4.447
7.740	-13.562	-4.189
7.674	-13.599	-3.874
7.526	-13.611	-3.616
-7.331	-11.566	-8.492
-7.809	-11.499	-8.595
-8.071	-11.487	-8.496
-8.438	-11.456	-8.500
-8.696	-11.438	-8.406
-9.031	-11.407	-8.373
-9.289	-11.395	-8.278
-9.546	-11.377	-8.184
-9.806	-11.365	-8.088
-10.064	-11.346	-7.993
-10.321	-11.334	-7.899
-10.510	-11.334	-7.734
-10.768	-11.316	-7.640
-10.954	-11.316	-7.478
-11.143	-11.316	-7.314
-11.330	-11.316	-7.151
-11.450	-11.334	-6.918
-11.639	-11.334	-6.753
-11.759	-11.346	-6.520
-11.879	-11.365	-6.286
-12.000	-11.377	-6.051
-12.055	-11.407	-5.744
-12.178	-11.426	-5.508
-12.301	-11.438	-5.271
-12.425	-11.456	-5.035
-12.549	-11.468	-4.798
-12.641	-11.487	-4.523
-12.832	-11.487	-4.357
-6.020	-14.002	11.525
-6.372	-13.965	11.571
-6.664	-13.953	11.696
-7.048	-13.916	11.706
-7.399	-13.892	11.753
-7.749	-13.855	11.798
-8.095	-13.831	11.840
-8.442	-13.794	11.883
-8.730	-13.782	12.004
-9.074	-13.745	12.044
-9.360	-13.733	12.163
-9.645	-13.721	12.281
-9.930	-13.709	12.400
-10.215	-13.684	12.519
-10.445	-13.684	12.719
-10.671	-13.684	12.915
-10.897	-13.684	13.111
-11.123	-13.684	13.307
-11.293	-13.709	13.585
-11.409	-13.733	13.945
-11.585	-13.745	14.227
-11.701	-13.782	14.586
-11.822	-13.806	14.950
-11.992	-13.831	15.228
-12.113	-13.855	15.592
-12.288	-13.879	15.874
-12.464	-13.892	16.155
-12.644	-13.904	16.441
31.628	-15.698	-9.363
31.288	-15.686	-9.196
30.929	-15.662	-9.014
30.588	-15.649	-8.847
30.184	-15.637	-8.754
29.843	-15.613	-8.588
29.484	-15.601	-8.405
29.176	-15.588	-8.202
28.836	-15.576	-8.035
28.578	-15.576	-7.811
28.338	-15.576	-7.603
28.163	-15.588	-7.321
27.974	-15.601	-7.092
27.899	-15.637	-6.768
27.889	-15.662	-6.371
27.814	-15.698	-6.047
27.822	-15.747	-5.666
27.830	-15.796	-5.285
27.838	-15.832	-4.904
27.763	-15.869	-4.580
27.753	-15.918	-4.183
27.761	-15.967	-3.801
27.686	-15.991	-3.478
27.511	-16.016	-3.196
27.335	-16.028	-2.914
27.077	-16.028	-2.690
13.560	-13.940	-8.602
13.165	-13.916	-8.517
12.779	-13.879	-8.440
12.383	-13.855	-8.355
11.905	-13.806	-8.328
11.519	-13.770	-8.251
11.124	-13.745	-8.166
10.738	-13.709	-8.089
10.320	-13.672	-8.049
10.016	-13.660	-7.915
9.630	-13.635	-7.838
9.409	-13.635	-7.646
9.105	-13.611	-7.511
8.884	-13.611	-7.319
8.663	-13.611	-7.127
8.524	-13.635	-6.877
8.386	-13.648	-6.627
8.321	-13.672	-6.312
8.214	-13.696	-6.025
8.149	-13.721	-5.709
8.010	-13.745	-5.459
7.945	-13.770	-5.144
7.870	-13.806	-4.820
7.805	-13.831	-4.505
7.740	-13.867	-4.189
7.674	-13.892	-3.874
7.526	-13.916	-3.616
-7.735	-11.768	-8.529
-8.071	-11.737	-8.496
-8.365	-11.725	-8.435
-8.696	-11.694	-8.406
-9.031	-11.664	-8.373
-9.289	-11.646	-8.278
-9.546	-11.627	-8.184
-9.806	-11.615	-8.088
-10.064	-11.597	-7.993
-10.321	-11.585	-7.899
-10.510	-11.585	-7.734
-10.768	-11.566	-7.640
-10.954	-11.566	-7.478
-11.143	-11.566	-7.314
-11.330	-11.566	-7.151
-11.450	-11.585	-6.918
-11.639	-11.585	-6.753
-11.759	-11.597	-6.520
-11.879	-11.615	-6.286
-12.000	-11.627	-6.051
-12.122	-11.646	-5.816
-12.178	-11.676	-5.508
-12.301	-11.694	-5.271
-12.425	-11.707	-5.035
-12.549	-11.725	-4.798
-12.641	-11.737	-4.523
-12.832	-11.737	-4.357
-6.080	-14.282	11.447
-6.434	-14.258	11.496
-6.758	-14.246	11.583
-7.048	-14.221	11.706
-7.399	-14.197	11.753
-7.749	-14.160	11.798
-8.095	-14.136	11.840
-8.442	-14.099	11.883
-8.730	-14.087	12.004
-9.074	-14.050	12.044
-9.360	-14.038	12.163
-9.645	-14.026	12.281
-9.930	-14.002	12.400
-10.215	-13.989	12.519
-10.445	-13.989	12.719
-10.671	-13.989	12.915
-10.897	-13.989	13.111
-11.123	-13.989	13.307
-11.293	-14.002	13.585
-11.409	-14.038	13.945
-11.585	-14.050	14.227
-11.701	-14.087	14.586
-11.822	-14.111	14.950
-11.938	-14.148	15.310
-12.113	-14.160	15.592
-12.288	-14.172	15.874
-12.464	-14.197	16.155
-12.644	-14.209	16.441
31.187	-16.003	-9.238
30.846	-15.991	-9.072
30.442	-15.967	-8.979
30.083	-15.955	-8.796
29.742	-15.942	-8.630
29.434	-15.918	-8.426
29.094	-15.906	-8.260
28.836	-15.906	-8.035
28.578	-15.906	-7.811
28.338	-15.906	-7.603
28.163	-15.918	-7.321
27.974	-15.942	-7.092
27.899	-15.967	-6.768
27.889	-16.003	-6.371
27.814	-16.040	-6.047
27.822	-16.077	-5.666
27.830	-16.126	-5.285
27.838	-16.174	-4.904
27.846	-16.223	-4.522
27.854	-16.272	-4.141
27.761	-16.309	-3.801
27.769	-16.357	-3.420
27.676	-16.382	-3.081
27.500	-16.406	-2.799
27.325	-16.418	-2.517
13.642	-14.258	-8.544
13.256	-14.233	-8.467
12.861	-14.197	-8.382
12.383	-14.148	-8.355
11.905	-14.099	-8.328
11.519	-14.062	-8.251
11.124	-14.038	-8.166
10.738	-14.002	-8.089
10.320	-13.977	-8.049
9.934	-13.940	-7.973
9.630	-13.928	-7.838
9.326	-13.904	-7.704
9.105	-13.904	-7.511
8.884	-13.904	-7.319
8.663	-13.904	-7.127
8.524	-13.928	-6.877
8.386	-13.940	-6.627
8.247	-13.953	-6.377
8.214	-13.989	-6.025
8.149	-14.014	-5.709
8.010	-14.038	-5.459
7.945	-14.062	-5.144
7.870	-14.099	-4.820
7.805	-14.136	-4.505
7.740	-14.160	-4.189
7.674	-14.197	-3.874
7.444	-14.197	-3.673
-7.043	-12.134	-8.225
-7.667	-12.042	-8.459
-7.998	-12.006	-8.430
-8.365	-11.975	-8.435
-8.696	-11.945	-8.406
-9.031	-11.914	-8.373
-9.289	-11.896	-8.278
-9.546	-11.877	-8.184
-9.806	-11.865	-8.088
-10.064	-11.847	-7.993
-10.321	-11.829	-7.899
-10.510	-11.829	-7.734
-10.768	-11.816	-7.640
-10.954	-11.816	-7.478
-11.143	-11.816	-7.314
-11.330	-11.816	-7.151
-11.450	-11.829	-6.918
-11.639	-11.829	-6.753
-11.759	-11.847	-6.520
-11.879	-11.865	-6.286
-12.000	-11.877	-6.051
-12.122	-11.896	-5.816
-12.244	-11.914	-5.580
-12.368	-11.926	-5.343
-12.425	-11.957	-5.035
-12.549	-11.975	-4.798
-12.739	-11.975	-4.632
-12.832	-11.993	-4.357
-6.201	-14.563	11.294
-6.525	-14.551	11.381
-6.817	-14.526	11.506
-7.107	-14.514	11.628
-7.459	-14.477	11.675
-7.749	-14.465	11.798
-8.095	-14.441	11.840
-8.442	-14.404	11.883
-8.730	-14.392	12.004
-9.074	-14.355	12.044
-9.360	-14.343	12.163
-9.645	-14.319	12.281
-9.930	-14.307	12.400
-10.215	-14.294	12.519
-10.445	-14.294	12.719
-10.726	-14.270	12.833
-10.897	-14.294	13.111
-11.123	-14.294	13.307
-11.293	-14.307	13.585
-11.469	-14.319	13.867
-11.585	-14.355	14.227
-11.701	-14.392	14.586
-11.822	-14.416	14.950
-11.938	-14.453	15.310
-12.113	-14.465	15.592
-12.234	-14.502	15.955
-12.414	-14.514	16.241
-12.644	-14.514	16.441
31.187	-16.345	-9.238
30.681	-16.309	-9.187
30.442	-16.309	-8.979
30.083	-16.296	-8.796
29.742	-16.272	-8.630
29.434	-16.260	-8.426
29.094	-16.248	-8.260
28.836	-16.248	-8.035
28.495	-16.223	-7.869
28.338	-16.248	-7.603
28.163	-16.260	-7.321
27.974	-16.272	-7.092
27.899	-16.309	-6.768
27.889	-16.345	-6.371
27.814	-16.370	-6.047
27.822	-16.418	-5.666
27.830	-16.467	-5.285
27.838	-16.516	-4.904
27.846	-16.565	-4.522
27.854	-16.614	-4.141
27.862	-16.663	-3.760
27.851	-16.711	-3.362
27.859	-16.760	-2.981
27.766	-16.797	-2.642
27.591	-16.809	-2.360
13.766	-14.575	-8.457
13.339	-14.539	-8.409
12.943	-14.514	-8.325
12.383	-14.441	-8.355
11.905	-14.392	-8.328
11.519	-14.368	-8.251
11.124	-14.331	-8.166
10.738	-14.294	-8.089
10.320	-14.270	-8.049
9.934	-14.233	-7.973
9.630	-14.221	-7.838
9.326	-14.197	-7.704
9.105	-14.197	-7.511
8.884	-14.197	-7.319
8.663	-14.197	-7.127
8.524	-14.221	-6.877
8.386	-14.233	-6.627
8.247	-14.246	-6.377
8.214	-14.282	-6.025
8.149	-14.319	-5.709
8.010	-14.331	-5.459
7.945	-14.368	-5.144
7.870	-14.392	-4.820
7.805	-14.429	-4.505
7.740	-14.465	-4.189
7.592	-14.477	-3.931
7.444	-14.490	-3.673
-7.043	-12.390	-8.225
-7.593	-12.311	-8.394
-7.929	-12.274	-8.361
-8.365	-12.225	-8.435
-8.696	-12.195	-8.406
-8.958	-12.176	-8.307
-9.289	-12.146	-8.278
-9.546	-12.128	-8.184
-9.806	-12.115	-8.088
-10.064	-12.097	-7.993
-10.321	-12.079	-7.899
-10.510	-12.079	-7.734
-10.768	-12.067	-7.640
-10.954	-12.067	-7.478
-11.143	-12.067	-7.314
-11.330	-12.067	-7.151
-11.450	-12.079	-6.918
-11.639	-12.079	-6.753
-11.759	-12.097	-6.520
-11.879	-12.115	-6.286
-12.000	-12.128	-6.051
-12.122	-12.146	-5.816
-12.244	-12.164	-5.580
-12.368	-12.176	-5.343
-12.490	-12.195	-5.107
-12.615	-12.213	-4.869
-12.739	-12.225	-4.632
-12.929	-12.225	-4.467
-6.295	-14.856	11.181
-6.587	-14.832	11.306
-6.877	-14.819	11.428
-7.169	-14.807	11.553
-7.459	-14.783	11.675
-7.749	-14.771	11.798
-8.095	-14.734	11.840
-8.442	-14.710	11.883
-8.730	-14.685	12.004
-9.074	-14.661	12.044
-9.360	-14.636	12.163
-9.645	-14.624	12.281
-9.930	-14.612	12.400
-10.215	-14.587	12.519
-10.500	-14.575	12.637
-10.726	-14.575	12.833
-10.956	-14.575	13.033
-11.123	-14.587	13.307
-11.293	-14.612	13.585
-11.469	-14.624	13.867
-11.585	-14.661	14.227
-11.701	-14.685	14.586
-11.822	-14.722	14.950
-11.938	-14.758	15.310
-12.113	-14.771	15.592
-12.234	-14.807	15.955
-12.414	-14.819	16.241
-12.644	-14.819	16.441
30.939	-16.638	-9.411
30.681	-16.638	-9.187
30.341	-16.626	-9.020
30.000	-16.614	-8.854
29.692	-16.589	-8.650
29.333	-16.577	-8.468
29.094	-16.577	-8.260
28.753	-16.565	-8.093
28.495	-16.565	-7.869
28.338	-16.577	-7.603
28.080	-16.577	-7.379
27.974	-16.614	-7.092
27.817	-16.626	-6.826
27.889	-16.675	-6.371
27.814	-16.711	-6.047
27.822	-16.760	-5.666
27.747	-16.797	-5.343
27.838	-16.858	-4.904
27.846	-16.907	-4.522
27.854	-16.956	-4.141
27.944	-17.029	-3.702
27.934	-17.078	-3.305
27.942	-17.127	-2.924
27.950	-17.175	-2.542
28.022	-17.248	-2.087
28.506	-17.371	-1.344
13.849	-14.893	-8.400
13.421	-14.856	-8.352
13.026	-14.832	-8.267
12.466	-14.758	-8.298
11.988	-14.710	-8.270
11.519	-14.661	-8.251
11.041	-14.612	-8.224
10.655	-14.575	-8.147
10.320	-14.563	-8.049
9.934	-14.526	-7.973
9.630	-14.514	-7.838
9.326	-14.490	-7.704
9.105	-14.490	-7.511
8.884	-14.490	-7.319
8.663	-14.490	-7.127
8.524	-14.514	-6.877
8.386	-14.526	-6.627
8.247	-14.539	-6.377
8.214	-14.575	-6.025
8.066	-14.587	-5.767
8.010	-14.624	-5.459
7.945	-14.661	-5.144
7.870	-14.697	-4.820
7.805	-14.722	-4.505
7.657	-14.746	-4.247
7.592	-14.771	-3.931
7.371	-14.771	-3.739
-7.185	-12.610	-8.361
-7.593	-12.561	-8.394
-7.929	-12.524	-8.361
-8.260	-12.494	-8.332
-8.627	-12.463	-8.336
-8.958	-12.427	-8.307
-9.289	-12.396	-8.278
-9.546	-12.378	-8.184
-9.806	-12.366	-8.088
-10.064	-12.347	-7.993
-10.321	-12.329	-7.899
-10.510	-12.329	-7.734
-10.768	-12.311	-7.640
-10.954	-12.311	-7.478
-11.143	-12.311	-7.314
-11.330	-12.311	-7.151
-11.518	-12.311	-6.987
-11.639	-12.329	-6.753
-11.759	-12.347	-6.520
-11.879	-12.366	-6.286
-12.000	-12.378	-6.051
-12.122	-12.396	-5.816
-12.244	-12.415	-5.580
-12.368	-12.427	-5.343
-12.490	-12.445	-5.107
-12.615	-12.463	-4.869
-12.739	-12.482	-4.632
-12.929	-12.482	-4.467
-6.646	-15.124	11.228
-6.877	-15.124	11.428
-7.169	-15.112	11.553
-7.459	-15.088	11.675
-7.749	-15.076	11.798
-8.095	-15.039	11.840
-8.442	-15.015	11.883
-8.730	-14.990	12.004
-9.074	-14.966	12.044
-9.360	-14.941	12.163
-9.704	-14.905	12.204
-9.989	-14.893	12.322
-10.215	-14.893	12.519
-10.500	-14.880	12.637
-10.726	-14.880	12.833
-10.956	-14.880	13.033
-11.123	-14.893	13.307
-11.293	-14.905	13.585
-11.469	-14.929	13.867
-11.585	-14.966	14.227
-11.701	-14.990	14.586
-11.876	-15.015	14.868
-11.992	-15.039	15.228
-12.113	-15.076	15.592
-12.234	-15.112	15.955
-12.414	-15.124	16.241
-12.644	-15.124	16.441
30.939	-16.980	-9.411
30.681	-16.980	-9.187
30.341	-16.968	-9.020
30.000	-16.943	-8.854
29.692	-16.931	-8.650
29.333	-16.907	-8.468
28.993	-16.895	-8.301
28.753	-16.895	-8.093
28.495	-16.895	-7.869
28.338	-16.907	-7.603
28.080	-16.907	-7.379
27.974	-16.943	-7.092
27.817	-16.968	-6.826
27.788	-16.992	-6.413
27.814	-17.053	-6.047
27.739	-17.078	-5.724
27.747	-17.127	-5.343
27.755	-17.187	-4.961
27.846	-17.248	-4.522
27.854	-17.297	-4.141
27.944	-17.371	-3.702
28.035	-17.444	-3.263
28.107	-17.505	-2.808
28.115	-17.554	-2.427
28.517	-17.676	-1.741
28.607	-17.749	-1.302
28.514	-17.773	-0.963
13.957	-15.259	-7.977
13.191	-15.161	-8.152
12.548	-15.076	-8.240
11.988	-15.002	-8.270
11.519	-14.954	-8.251
11.041	-14.905	-8.224
10.655	-14.868	-8.147
10.237	-14.832	-8.107
9.934	-14.819	-7.973
9.630	-14.807	-7.838
9.326	-14.783	-7.704
9.105	-14.783	-7.511
8.884	-14.783	-7.319
8.663	-14.783	-7.127
8.524	-14.807	-6.877
8.386	-14.819	-6.627
8.247	-14.832	-6.377
8.214	-14.868	-6.025
8.066	-14.893	-5.767
8.010	-14.917	-5.459
7.945	-14.954	-5.144
7.797	-14.978	-4.886
7.732	-15.002	-4.570
7.657	-15.039	-4.247
7.518	-15.063	-3.997
7.371	-15.076	-3.739
-7.111	-12.878	-8.295
-7.520	-12.830	-8.328
-7.929	-12.781	-8.361
-8.260	-12.744	-8.332
-8.627	-12.707	-8.336
-8.958	-12.683	-8.307
-9.289	-12.646	-8.278
-9.546	-12.622	-8.184
-9.806	-12.610	-8.088
-10.064	-12.598	-7.993
-10.321	-12.573	-7.899
-10.510	-12.573	-7.734
-10.768	-12.561	-7.640
-10.954	-12.561	-7.478
-11.143	-12.561	-7.314
-11.330	-12.561	-7.151
-11.518	-12.561	-6.987
-11.639	-12.573	-6.753
-11.759	-12.598	-6.520
-11.945	-12.598	-6.357
-12.067	-12.610	-6.122
-12.189	-12.622	-5.887
-12.244	-12.659	-5.580
-12.368	-12.683	-5.343
-12.490	-12.695	-5.107
-12.615	-12.707	-4.869
-12.739	-12.732	-4.632
-12.929	-12.732	-4.467
-6.708	-15.418	11.152
-6.877	-15.430	11.428
-7.169	-15.418	11.553
-7.459	-15.393	11.675
-7.749	-15.381	11.798
-8.095	-15.344	11.840
-8.442	-15.308	11.883
-8.730	-15.295	12.004
-9.074	-15.259	12.044
-9.360	-15.247	12.163
-9.704	-15.210	12.204
-9.989	-15.198	12.322
-10.215	-15.198	12.519
-10.500	-15.173	12.637
-10.726	-15.173	12.833
-10.956	-15.173	13.033
-11.123	-15.198	13.307
-11.293	-15.210	13.585
-11.469	-15.222	13.867
-11.640	-15.247	14.145
-11.756	-15.283	14.505
-11.876	-15.308	14.868
-11.992	-15.344	15.228
-12.113	-15.381	15.592
-12.288	-15.393	15.874
-12.464	-15.418	16.155
-12.644	-15.430	16.441
-12.820	-15.454	16.723
31.104	-17.334	-9.296
30.681	-17.310	-9.187
30.341	-17.297	-9.020
30.000	-17.285	-8.854
29.692	-17.261	-8.650
29.333	-17.248	-8.468
28.993	-17.224	-8.301
28.753	-17.224	-8.093
28.495	-17.224	-7.869
28.237	-17.224	-7.645
28.080	-17.248	-7.379
27.923	-17.261	-7.113
27.817	-17.297	-6.826
27.788	-17.334	-6.413
27.713	-17.371	-6.089
27.739	-17.419	-5.724
27.747	-17.468	-5.343
27.755	-17.529	-4.961
27.763	-17.578	-4.580
27.753	-17.627	-4.183
27.862	-17.700	-3.760
27.934	-17.761	-3.305
28.107	-17.859	-2.808
28.197	-17.920	-2.369
28.517	-18.030	-1.741
28.937	-18.164	-1.071
29.357	-18.298	-0.402
14.122	-15.601	-7.861
13.397	-15.491	-8.007
12.887	-15.442	-8.017
11.988	-15.308	-8.270
11.519	-15.247	-8.251
11.041	-15.198	-8.224
10.655	-15.161	-8.147
10.237	-15.137	-8.107
9.934	-15.112	-7.973
9.630	-15.100	-7.838
9.326	-15.076	-7.704
9.105	-15.076	-7.511
8.884	-15.076	-7.319
8.663	-15.076	-7.127
8.524	-15.100	-6.877
8.386	-15.112	-6.627
8.247	-15.137	-6.377
8.099	-15.149	-6.119
8.066	-15.185	-5.767
8.010	-15.222	-5.459
7.862	-15.234	-5.202
7.797	-15.271	-4.886
7.732	-15.308	-4.570
7.584	-15.320	-4.312
7.436	-15.344	-4.055
7.288	-15.356	-3.797
-6.561	-13.220	-8.127
-7.043	-13.159	-8.225
-7.451	-13.098	-8.258
-7.856	-13.049	-8.295
-8.260	-13.001	-8.332
-8.627	-12.964	-8.336
-8.958	-12.927	-8.307
-9.289	-12.891	-8.278
-9.546	-12.878	-8.184
-9.806	-12.854	-8.088
-10.064	-12.842	-7.993
-10.321	-12.830	-7.899
-10.579	-12.805	-7.804
-10.768	-12.805	-7.640
-10.954	-12.805	-7.478
-11.143	-12.805	-7.314
-11.330	-12.805	-7.151
-11.518	-12.805	-6.987
-11.639	-12.830	-6.753
-11.825	-12.830	-6.591
-11.945	-12.842	-6.357
-12.067	-12.854	-6.122
-12.189	-12.878	-5.887
-12.310	-12.891	-5.652
-12.368	-12.927	-5.343
-12.490	-12.952	-5.107
-12.615	-12.964	-4.869
-12.804	-12.964	-4.705
-12.929	-12.976	-4.467
-6.877	-15.735	11.428
-7.169	-15.723	11.553
-7.459	-15.698	11.675
-7.749	-15.686	11.798
-8.095	-15.649	11.840
-8.442	-15.613	11.883
-8.730	-15.601	12.004
-9.074	-15.564	12.044
-9.360	-15.552	12.163
-9.704	-15.515	12.204
-9.989	-15.491	12.322
-10.275	-15.479	12.441
-10.500	-15.479	12.637
-10.726	-15.479	12.833
-10.956	-15.479	13.033
-11.182	-15.479	13.230
-11.353	-15.491	13.508
-11.469	-15.527	13.867
-11.640	-15.552	14.145
-11.756	-15.576	14.505
-11.876	-15.613	14.868
-11.992	-15.649	15.228
-12.113	-15.686	15.592
-12.288	-15.698	15.874
-12.464	-15.723	16.155
-12.644	-15.735	16.441
32.069	-17.761	-9.488
31.628	-17.725	-9.363
31.187	-17.688	-9.238
30.846	-17.664	-9.072
30.341	-17.639	-9.020
30.000	-17.615	-8.854
29.692	-17.602	-8.650
29.333	-17.578	-8.468
28.993	-17.566	-8.301
28.753	-17.566	-8.093
28.495	-17.566	-7.869
28.237	-17.566	-7.645
28.080	-17.578	-7.379
27.923	-17.602	-7.113
27.817	-17.639	-6.826
27.788	-17.664	-6.413
27.713	-17.700	-6.089
27.639	-17.737	-5.766
27.647	-17.798	-5.384
27.654	-17.847	-5.003
27.662	-17.896	-4.622
27.670	-17.957	-4.240
27.761	-18.018	-3.801
27.851	-18.091	-3.362
28.024	-18.176	-2.866
28.197	-18.274	-2.369
28.517	-18.372	-1.741
14.122	-15.906	-7.861
13.480	-15.808	-7.950
12.713	-15.710	-8.124
12.070	-15.625	-8.213
11.519	-15.552	-8.251
11.041	-15.491	-8.224
10.655	-15.454	-8.147
10.237	-15.430	-8.107
9.934	-15.405	-7.973
9.630	-15.393	-7.838
9.326	-15.369	-7.704
9.023	-15.356	-7.569
8.802	-15.356	-7.377
8.663	-15.369	-7.127
8.442	-15.369	-6.935
8.303	-15.393	-6.685
8.247	-15.430	-6.377
8.099	-15.442	-6.119
8.066	-15.479	-5.767
7.927	-15.491	-5.517
7.862	-15.527	-5.202
7.714	-15.552	-4.944
7.649	-15.588	-4.628
7.584	-15.625	-4.312
7.436	-15.637	-4.055
7.288	-15.649	-3.797
-5.969	-13.574	-7.930
-6.414	-13.513	-7.995
-6.896	-13.440	-8.094
-7.378	-13.379	-8.192
-7.787	-13.318	-8.225
-8.191	-13.269	-8.262
-8.627	-13.220	-8.336
-8.958	-13.184	-8.307
-9.289	-13.147	-8.278
-9.546	-13.123	-8.184
-9.806	-13.110	-8.088
-10.064	-13.086	-7.993
-10.321	-13.074	-7.899
-10.579	-13.062	-7.804
-10.768	-13.062	-7.640
-10.954	-13.062	-7.478
-11.143	-13.062	-7.314
-11.330	-13.062	-7.151
-11.518	-13.062	-6.987
-11.639	-13.074	-6.753
-11.825	-13.074	-6.591
-11.945	-13.086	-6.357
-12.067	-13.110	-6.122
-12.189	-13.123	-5.887
-12.310	-13.147	-5.652
-12.433	-13.159	-5.416
-12.490	-13.196	-5.107
-12.615	-13.220	-4.869
-12.804	-13.220	-4.705
-12.929	-13.232	-4.467
-6.939	-16.028	11.352
-7.169	-16.028	11.553
-7.399	-16.028	11.753
-7.749	-15.991	11.798
-8.095	-15.955	11.840
-8.383	-15.942	11.961
-8.730	-15.906	12.004
-9.074	-15.869	12.044
-9.360	-15.845	12.163
-9.704	-15.808	12.204
-9.989	-15.796	12.322
-10.275	-15.784	12.441
-10.500	-15.784	12.637
-10.726	-15.784	12.833
-10.956	-15.784	13.033
-11.182	-15.784	13.230
-11.353	-15.796	13.508
-11.524	-15.808	13.786
-11.640	-15.845	14.145
-11.756	-15.881	14.505
-11.876	-15.918	14.868
-11.992	-15.955	15.228
-12.168	-15.967	15.510
-12.288	-16.003	15.874
-12.464	-16.028	16.155
-12.644	-16.040	16.441
32.795	-18.188	-9.472
32.253	-18.127	-9.389
31.729	-18.079	-9.321
31.288	-18.042	-9.196
30.846	-18.005	-9.072
30.341	-17.969	-9.020
30.000	-17.957	-8.854
29.692	-17.932	-8.650
29.333	-17.920	-8.468
28.993	-17.896	-8.301
28.753	-17.896	-8.093
28.495	-17.896	-7.869
28.237	-17.896	-7.645
28.080	-17.920	-7.379
27.923	-17.932	-7.113
27.716	-17.957	-6.868
27.641	-17.993	-6.544
27.631	-18.030	-6.147
27.556	-18.054	-5.823
27.564	-18.115	-5.442
27.572	-18.164	-5.061
27.497	-18.201	-4.737
27.588	-18.274	-4.298
27.596	-18.335	-3.917
27.686	-18.408	-3.478
14.122	-16.199	-7.861
13.480	-16.113	-7.950
12.713	-16.003	-8.124
11.988	-15.894	-8.270
11.519	-15.845	-8.251
11.041	-15.796	-8.224
10.655	-15.759	-8.147
10.237	-15.723	-8.107
9.851	-15.686	-8.030
9.548	-15.662	-7.896
9.326	-15.662	-7.704
9.023	-15.649	-7.569
8.802	-15.649	-7.377
8.590	-15.649	-7.193
8.442	-15.662	-6.935
8.303	-15.686	-6.685
8.165	-15.698	-6.435
8.099	-15.735	-6.119
7.993	-15.759	-5.833
7.927	-15.796	-5.517
7.780	-15.808	-5.259
7.714	-15.845	-4.944
7.576	-15.857	-4.694
7.501	-15.894	-4.370
7.363	-15.918	-4.120
7.215	-15.930	-3.862
-5.482	-13.904	-7.835
-5.896	-13.843	-7.864
-6.414	-13.770	-7.995
-6.823	-13.721	-8.028
-7.305	-13.648	-8.127
-7.787	-13.574	-8.225
-8.191	-13.525	-8.262
-8.627	-13.464	-8.336
-8.958	-13.428	-8.307
-9.289	-13.391	-8.278
-9.546	-13.379	-8.184
-9.806	-13.354	-8.088
-10.064	-13.342	-7.993
-10.321	-13.318	-7.899
-10.579	-13.306	-7.804
-10.768	-13.306	-7.640
-10.954	-13.306	-7.478
-11.212	-13.281	-7.383
-11.330	-13.306	-7.151
-11.518	-13.306	-6.987
-11.705	-13.306	-6.825
-11.825	-13.318	-6.591
-11.945	-13.342	-6.357
-12.067	-13.354	-6.122
-12.189	-13.379	-5.887
-12.310	-13.391	-5.652
-12.433	-13.415	-5.416
-12.490	-13.452	-5.107
-12.615	-13.464	-4.869
-12.804	-13.464	-4.705
-12.929	-13.489	-4.467
-7.169	-16.333	11.553
-7.340	-16.345	11.831
-7.689	-16.309	11.875
-8.036	-16.272	11.918
-8.383	-16.235	11.961
-8.730	-16.199	12.004
-9.074	-16.174	12.044
-9.360	-16.150	12.163
-9.704	-16.113	12.204
-9.989	-16.101	12.322
-10.275	-16.077	12.441
-10.500	-16.077	12.637
-10.818	-16.065	12.719
-10.956	-16.077	13.033
-11.182	-16.077	13.230
-11.353	-16.101	13.508
-11.524	-16.113	13.786
-11.640	-16.150	14.145
-11.811	-16.174	14.423
-11.931	-16.199	14.787
-12.047	-16.235	15.146
-12.168	-16.272	15.510
-12.288	-16.309	15.874
-12.464	-16.333	16.155
32.253	-18.469	-9.389
31.811	-18.433	-9.264
31.288	-18.384	-9.196
30.846	-18.347	-9.072
30.341	-18.310	-9.020
30.000	-18.286	-8.854
29.591	-18.249	-8.692
29.251	-18.237	-8.525
28.993	-18.237	-8.301
28.652	-18.213	-8.135
28.394	-18.213	-7.910
28.155	-18.213	-7.702
27.979	-18.237	-7.420
27.822	-18.249	-7.154
27.665	-18.274	-6.888
27.559	-18.310	-6.602
27.548	-18.347	-6.204
27.474	-18.384	-5.881
27.381	-18.420	-5.541
27.389	-18.469	-5.160
14.122	-16.504	-7.861
13.397	-16.394	-8.007
12.548	-16.272	-8.240
11.905	-16.174	-8.328
11.437	-16.126	-8.309
10.959	-16.065	-8.282
10.541	-16.028	-8.242
10.155	-15.991	-8.165
9.851	-15.979	-8.030
9.548	-15.955	-7.896
9.326	-15.955	-7.704
9.023	-15.942	-7.569
8.802	-15.942	-7.377
8.590	-15.942	-7.193
8.442	-15.955	-6.935
8.303	-15.979	-6.685
8.165	-15.991	-6.435
8.017	-16.016	-6.177
7.993	-16.052	-5.833
7.845	-16.065	-5.575
7.780	-16.101	-5.259
7.641	-16.126	-5.009
7.576	-16.162	-4.694
7.428	-16.174	-4.436
7.363	-16.211	-4.120
7.215	-16.235	-3.862
-5.142	-14.197	-7.872
-5.482	-14.160	-7.835
-5.896	-14.099	-7.864
-6.341	-14.050	-7.930
-6.823	-13.977	-8.028
-7.236	-13.916	-8.057
-7.714	-13.843	-8.160
-8.191	-13.770	-8.262
-8.627	-13.721	-8.336
-8.958	-13.684	-8.307
-9.289	-13.648	-8.278
-9.546	-13.623	-8.184
-9.806	-13.611	-8.088
-10.064	-13.586	-7.993
-10.321	-13.574	-7.899
-10.579	-13.550	-7.804
-10.768	-13.550	-7.640
-11.023	-13.538	-7.547
-11.212	-13.538	-7.383
-11.398	-13.538	-7.221
-11.518	-13.550	-6.987
-11.705	-13.550	-6.825
-11.825	-13.574	-6.591
-11.945	-13.586	-6.357
-12.067	-13.611	-6.122
-12.189	-13.623	-5.887
-12.310	-13.648	-5.652
-12.433	-13.660	-5.416
-12.557	-13.684	-5.179
-12.680	-13.696	-4.942
-12.804	-13.721	-4.705
-12.929	-13.733	-4.467
-6.117	-16.943	12.902
-7.278	-16.675	11.906
-7.630	-16.638	11.953
-8.036	-16.577	11.918
-8.383	-16.540	11.961
-8.730	-16.504	12.004
-9.074	-16.467	12.044
-9.419	-16.431	12.085
-9.704	-16.418	12.204
-9.989	-16.394	12.322
-10.275	-16.382	12.441
-10.592	-16.357	12.522
-10.818	-16.357	12.719
-11.043	-16.357	12.915
-11.182	-16.382	13.230
-11.353	-16.394	13.508
-11.524	-16.418	13.786
-11.695	-16.431	14.063
-11.811	-16.467	14.423
-11.931	-16.504	14.787
-12.047	-16.540	15.146
-12.168	-16.577	15.510
-12.288	-16.614	15.874
-12.414	-16.650	16.241
28.570	-18.530	-8.192
28.312	-18.530	-7.968
28.054	-18.530	-7.744
27.814	-18.530	-7.536
14.040	-16.797	-7.919
13.305	-16.675	-8.057
12.383	-16.528	-8.355
11.740	-16.443	-8.443
11.354	-16.394	-8.366
10.876	-16.345	-8.339
10.541	-16.321	-8.242
10.155	-16.284	-8.165
9.851	-16.272	-8.030
9.548	-16.248	-7.896
9.244	-16.235	-7.761
9.023	-16.235	-7.569
8.802	-16.235	-7.377
8.590	-16.235	-7.193
8.442	-16.248	-6.935
8.221	-16.248	-6.743
8.165	-16.284	-6.435
8.017	-16.309	-6.177
7.878	-16.321	-5.927
7.845	-16.357	-5.575
7.706	-16.382	-5.325
7.641	-16.418	-5.009
7.576	-16.455	-4.694
7.428	-16.479	-4.436
7.280	-16.492	-4.178
7.132	-16.516	-3.920
-5.142	-14.453	-7.872
-5.482	-14.416	-7.835
-5.896	-14.368	-7.864
-6.341	-14.307	-7.930
-6.823	-14.233	-8.028
-7.236	-14.172	-8.057
-7.714	-14.099	-8.160
-8.191	-14.026	-8.262
-8.627	-13.965	-8.336
-8.958	-13.928	-8.307
-9.289	-13.892	-8.278
-9.546	-13.879	-8.184
-9.877	-13.843	-8.155
-10.064	-13.843	-7.993
-10.321	-13.818	-7.899
-10.579	-13.806	-7.804
-10.768	-13.806	-7.640
-11.023	-13.782	-7.547
-11.212	-13.782	-7.383
-11.398	-13.782	-7.221
-11.518	-13.806	-6.987
-11.705	-13.806	-6.825
-11.825	-13.818	-6.591
-11.945	-13.843	-6.357
-12.067	-13.855	-6.122
-12.189	-13.879	-5.887
-12.310	-13.892	-5.652
-12.433	-13.916	-5.416
-12.557	-13.928	-5.179
-12.680	-13.953	-4.942
-12.804	-13.965	-4.705
-12.929	-13.989	-4.467
-7.068	-17.029	12.176
-7.570	-16.956	12.031
-7.976	-16.907	11.996
-8.326	-16.870	12.041
-8.730	-16.809	12.004
-9.074	-16.773	12.044
-9.419	-16.736	12.085
-9.704	-16.711	12.204
-9.989	-16.699	12.322
-10.275	-16.675	12.441
-10.592	-16.663	12.522
-10.818	-16.663	12.719
-11.043	-16.663	12.915
-11.269	-16.663	13.111
-11.408	-16.675	13.426
-11.579	-16.699	13.704
-11.695	-16.736	14.063
-11.811	-16.773	14.423
-11.931	-16.809	14.787
-12.047	-16.846	15.146
-12.113	-16.907	15.592
-12.234	-16.943	15.955
-12.304	-16.992	16.405
13.191	-16.956	-8.152
12.301	-16.809	-8.413
11.658	-16.711	-8.501
11.272	-16.675	-8.424
10.876	-16.638	-8.339
10.458	-16.602	-8.299
10.155	-16.577	-8.165
9.851	-16.565	-8.030
9.548	-16.540	-7.896
9.244	-16.528	-7.761
9.023	-16.528	-7.569
8.802	-16.528	-7.377
8.590	-16.528	-7.193
8.369	-16.528	-7.001
8.221	-16.540	-6.743
8.082	-16.565	-6.493
7.944	-16.577	-6.243
7.878	-16.614	-5.927
7.772	-16.638	-5.640
7.706	-16.675	-5.325
7.641	-16.711	-5.009
7.493	-16.736	-4.751
7.428	-16.773	-4.436
7.363	-16.809	-4.120
7.215	-16.834	-3.862
-5.216	-14.697	-7.937
-5.555	-14.661	-7.901
-5.896	-14.624	-7.864
-6.414	-14.551	-7.995
-6.823	-14.490	-8.028
-7.305	-14.416	-8.127
-7.714	-14.355	-8.160
-8.191	-14.282	-8.262
-8.627	-14.221	-8.336
-8.958	-14.185	-8.307
-9.289	-14.148	-8.278
-9.546	-14.123	-8.184
-9.877	-14.087	-8.155
-10.135	-14.075	-8.061
-10.321	-14.075	-7.899
-10.579	-14.050	-7.804
-10.768	-14.050	-7.640
-11.023	-14.038	-7.547
-11.212	-14.038	-7.383
-11.398	-14.038	-7.221
-11.518	-14.050	-6.987
-11.705	-14.050	-6.825
-11.825	-14.075	-6.591
-11.945	-14.087	-6.357
-12.067	-14.111	-6.122
-12.189	-14.123	-5.887
-12.310	-14.148	-5.652
-12.433	-14.160	-5.416
-12.557	-14.185	-5.179
-12.680	-14.209	-4.942
-12.804	-14.221	-4.705
-12.929	-14.246	-4.467
-5.785	-17.664	13.326
-6.889	-17.395	12.409
-7.360	-17.322	12.301
-7.860	-17.248	12.153
-8.326	-17.175	12.041
-8.670	-17.127	12.081
-9.074	-17.078	12.044
-9.419	-17.041	12.085
-9.704	-17.017	12.204
-9.989	-17.004	12.322
-10.275	-16.980	12.441
-10.592	-16.956	12.522
-10.818	-16.956	12.719
-11.043	-16.956	12.915
-11.269	-16.956	13.111
-11.408	-16.980	13.426
-11.579	-17.004	13.704
-11.695	-17.041	14.063
-11.811	-17.078	14.423
-11.931	-17.114	14.787
-11.992	-17.175	15.228
-12.058	-17.224	15.673
-12.129	-17.285	16.123
-12.162	-17.346	16.605
-12.073	-17.456	17.303
12.218	-17.090	-8.471
11.575	-16.992	-8.559
11.189	-16.956	-8.482
10.762	-16.919	-8.434
10.458	-16.895	-8.299
10.155	-16.870	-8.165
9.851	-16.858	-8.030
9.548	-16.834	-7.896
9.244	-16.821	-7.761
9.023	-16.821	-7.569
8.728	-16.797	-7.443
8.590	-16.821	-7.193
8.369	-16.821	-7.001
8.221	-16.834	-6.743
8.082	-16.858	-6.493
7.944	-16.870	-6.243
7.796	-16.895	-5.985
7.772	-16.931	-5.640
7.706	-16.968	-5.325
7.559	-16.992	-5.067
7.493	-17.029	-4.751
7.428	-17.065	-4.436
7.363	-17.102	-4.120
7.288	-17.151	-3.797
-5.216	-14.954	-7.937
-5.629	-14.905	-7.966
-5.969	-14.856	-7.930
-6.487	-14.783	-8.061
-6.896	-14.722	-8.094
-7.305	-14.673	-8.127
-7.787	-14.587	-8.225
-8.191	-14.526	-8.262
-8.627	-14.477	-8.336
-8.958	-14.441	-8.307
-9.289	-14.392	-8.278
-9.617	-14.355	-8.252
-9.877	-14.343	-8.155
-10.135	-14.319	-8.061
-10.392	-14.294	-7.966
-10.579	-14.294	-7.804
-10.836	-14.282	-7.710
-11.023	-14.282	-7.547
-11.212	-14.282	-7.383
-11.398	-14.282	-7.221
-11.585	-14.282	-7.059
-11.705	-14.294	-6.825
-11.825	-14.319	-6.591
-11.945	-14.343	-6.357
-12.067	-14.355	-6.122
-12.189	-14.380	-5.887
-12.310	-14.392	-5.652
-12.433	-14.416	-5.416
-12.557	-14.441	-5.179
-12.615	-14.477	-4.869
-12.804	-14.477	-4.705
-12.929	-14.490	-4.467
-5.307	-18.127	13.945
-6.711	-17.761	12.642
-7.300	-17.651	12.378
-7.860	-17.554	12.153
-8.266	-17.493	12.118
-8.670	-17.432	12.081
-9.074	-17.383	12.044
-9.419	-17.334	12.085
-9.704	-17.322	12.204
-10.049	-17.285	12.245
-10.362	-17.261	12.322
-10.592	-17.261	12.522
-10.872	-17.236	12.637
-11.098	-17.236	12.833
-11.269	-17.261	13.111
-11.408	-17.285	13.426
-11.579	-17.297	13.704
-11.749	-17.322	13.982
-11.866	-17.358	14.341
-11.931	-17.419	14.787
-11.992	-17.480	15.228
-12.058	-17.529	15.673
-12.074	-17.615	16.204
-12.002	-17.712	16.854
-11.908	-17.822	17.548
11.493	-17.261	-8.616
11.189	-17.248	-8.482
10.762	-17.212	-8.434
10.458	-17.187	-8.299
10.072	-17.151	-8.223
9.769	-17.127	-8.088
9.548	-17.127	-7.896
9.244	-17.114	-7.761
8.950	-17.090	-7.635
8.728	-17.090	-7.443
8.507	-17.090	-7.250
8.369	-17.114	-7.001
8.148	-17.114	-6.808
8.000	-17.127	-6.550
7.944	-17.163	-6.243
7.796	-17.187	-5.985
7.772	-17.224	-5.640
7.624	-17.248	-5.383
7.559	-17.285	-5.067
7.493	-17.322	-4.751
7.501	-17.383	-4.370
7.436	-17.419	-4.055
7.371	-17.468	-3.739
-5.629	-15.161	-7.966
-6.147	-15.076	-8.098
-6.561	-15.027	-8.127
-6.969	-14.966	-8.160
-7.378	-14.905	-8.192
-7.856	-14.819	-8.295
-8.260	-14.771	-8.332
-8.696	-14.710	-8.406
-9.031	-14.661	-8.373
-9.357	-14.624	-8.348
-9.617	-14.612	-8.252
-9.877	-14.587	-8.155
-10.135	-14.563	-8.061
-10.392	-14.551	-7.966
-10.579	-14.551	-7.804
-10.836	-14.526	-7.710
-11.023	-14.526	-7.547
-11.212	-14.526	-7.383
-11.398	-14.526	-7.221
-11.585	-14.526	-7.059
-11.705	-14.551	-6.825
-11.825	-14.563	-6.591
-11.945	-14.587	-6.357
-12.067	-14.612	-6.122
-12.189	-14.624	-5.887
-12.310	-14.648	-5.652
-12.433	-14.661	-5.416
-12.490	-14.710	-5.107
-12.615	-14.722	-4.869
-12.739	-14.746	-4.632
-12.929	-14.746	-4.467
-5.426	-18.408	13.790
-6.590	-18.115	12.796
-7.241	-17.981	12.456
-7.800	-17.871	12.231
-8.266	-17.798	12.118
-8.670	-17.737	12.081
-9.074	-17.676	12.044
-9.419	-17.639	12.085
-9.704	-17.615	12.204
-10.049	-17.578	12.245
-10.362	-17.566	12.322
-10.647	-17.541	12.441
-10.872	-17.541	12.637
-11.098	-17.541	12.833
-11.324	-17.541	13.029
-11.495	-17.566	13.307
