33.042	-8.142	12.219
32.706	-8.160	12.227
32.455	-8.173	12.115
32.205	-8.185	12.003
32.007	-8.185	11.804
31.704	-8.203	11.778
36.249	-6.775	-4.117
36.150	-6.763	-4.354
36.046	-6.750	-4.596
35.947	-6.744	-4.833
35.947	-6.720	-5.178
35.848	-6.714	-5.416
35.748	-6.702	-5.653
35.651	-6.696	-5.888
35.554	-6.683	-6.124
35.457	-6.671	-6.359
35.360	-6.665	-6.594
35.200	-6.665	-6.754
35.105	-6.653	-6.987
34.946	-6.653	-7.147
34.786	-6.653	-7.306
34.626	-6.653	-7.466
34.402	-6.665	-7.552
34.242	-6.665	-7.712
34.018	-6.671	-7.798
33.791	-6.683	-7.887
33.566	-6.696	-7.974
33.339	-6.702	-8.063
33.113	-6.714	-8.151
32.819	-6.732	-8.168
32.556	-6.744	-8.224
32.327	-6.750	-8.315
32.098	-6.763	-8.406
31.869	-6.775	-8.497
16.746	-8.154	-3.871
16.659	-8.142	-4.164
16.539	-8.136	-4.423
16.418	-8.124	-4.682
16.375	-8.106	-5.002
16.254	-8.093	-5.261
16.215	-8.075	-5.576
16.094	-8.063	-5.835
15.978	-8.057	-6.089
15.861	-8.044	-6.344
15.745	-8.032	-6.598
15.628	-8.026	-6.853
15.438	-8.026	-7.043
15.244	-8.026	-7.237
14.976	-8.032	-7.367
14.782	-8.032	-7.561
14.510	-8.044	-7.695
14.243	-8.057	-7.824
13.971	-8.063	-7.958
13.621	-8.081	-8.031
13.427	-8.081	-8.225
13.151	-8.093	-8.364
12.879	-8.106	-8.497
-3.720	-9.625	-3.344
-3.789	-9.601	-3.690
-3.849	-9.582	-4.026
-3.875	-9.564	-4.397
-3.936	-9.546	-4.734
-3.996	-9.521	-5.071
-4.134	-9.515	-5.347
-4.195	-9.497	-5.683
-4.333	-9.485	-5.960
-4.480	-9.473	-6.244
-4.618	-9.467	-6.521
-4.842	-9.467	-6.745
-4.989	-9.454	-7.030
-5.213	-9.454	-7.254
-5.438	-9.454	-7.479
-5.662	-9.454	-7.703
-5.981	-9.467	-7.885
-6.206	-9.467	-8.109
-6.517	-9.473	-8.282
-6.741	-9.473	-8.506
36.961	-8.337	15.033
36.763	-8.337	14.834
36.573	-8.337	14.644
36.426	-8.325	14.359
36.236	-8.325	14.169
36.098	-8.319	13.893
35.900	-8.319	13.695
35.710	-8.319	13.505
35.520	-8.319	13.315
35.321	-8.319	13.116
35.079	-8.325	13.013
34.890	-8.325	12.823
34.639	-8.337	12.711
34.398	-8.350	12.607
34.147	-8.356	12.495
33.845	-8.380	12.469
33.595	-8.386	12.357
33.353	-8.398	12.253
33.042	-8.417	12.219
32.757	-8.429	12.141
32.507	-8.441	12.029
32.257	-8.447	11.917
32.007	-8.460	11.804
36.249	-7.001	-4.117
36.150	-6.995	-4.354
36.046	-6.982	-4.596
36.046	-6.958	-4.941
35.947	-6.952	-5.178
35.848	-6.940	-5.416
35.748	-6.928	-5.653
35.651	-6.921	-5.888
35.554	-6.909	-6.124
35.457	-6.897	-6.359
35.360	-6.891	-6.594
35.200	-6.891	-6.754
35.105	-6.879	-6.987
34.946	-6.879	-7.147
34.786	-6.879	-7.306
34.626	-6.879	-7.466
34.402	-6.891	-7.552
34.242	-6.891	-7.712
34.018	-6.897	-7.798
33.791	-6.909	-7.887
33.566	-6.921	-7.974
33.339	-6.928	-8.063
33.113	-6.940	-8.151
32.819	-6.958	-8.168
32.556	-6.970	-8.224
32.327	-6.982	-8.315
32.098	-6.995	-8.406
31.869	-7.001	-8.497
16.867	-8.441	-3.612
16.746	-8.429	-3.871
16.659	-8.417	-4.164
16.539	-8.411	-4.423
16.418	-8.398	-4.682
16.375	-8.380	-5.002
16.254	-8.368	-5.261
16.215	-8.350	-5.576
16.094	-8.337	-5.835
15.978	-8.325	-6.089
15.861	-8.319	-6.344
15.745	-8.307	-6.598
15.628	-8.295	-6.853
15.438	-8.295	-7.043
15.244	-8.295	-7.237
14.976	-8.307	-7.367
14.782	-8.307	-7.561
14.510	-8.319	-7.695
14.243	-8.325	-7.824
13.971	-8.337	-7.958
13.699	-8.350	-8.092
13.427	-8.356	-8.225
13.151	-8.368	-8.364
12.957	-8.368	-8.558
-4.264	-10.071	-2.231
-3.996	-10.010	-2.792
-3.806	-9.961	-3.292
-3.867	-9.936	-3.629
-3.936	-9.918	-3.974
-3.875	-9.888	-4.397
-3.936	-9.869	-4.734
-3.996	-9.845	-5.071
-4.134	-9.839	-5.347
-4.195	-9.814	-5.683
-4.333	-9.808	-5.960
-4.480	-9.796	-6.244
-4.618	-9.784	-6.521
-4.756	-9.778	-6.797
-4.989	-9.778	-7.030
-5.213	-9.778	-7.254
-5.438	-9.778	-7.479
-5.662	-9.778	-7.703
-5.981	-9.784	-7.885
-6.206	-9.784	-8.109
-6.517	-9.796	-8.282
-6.741	-9.796	-8.506
36.763	-8.612	14.834
36.625	-8.600	14.558
36.426	-8.600	14.359
36.236	-8.600	14.169
36.098	-8.588	13.893
35.900	-8.588	13.695
35.710	-8.588	13.505
35.520	-8.588	13.315
35.321	-8.588	13.116
35.079	-8.600	13.013
34.890	-8.600	12.823
34.639	-8.612	12.711
34.398	-8.618	12.607
34.147	-8.630	12.495
33.897	-8.643	12.383
33.595	-8.661	12.357
33.353	-8.673	12.253
33.103	-8.685	12.141
32.757	-8.704	12.141
32.507	-8.716	12.029
32.257	-8.728	11.917
32.067	-8.728	11.727
36.249	-7.233	-4.117
36.150	-7.221	-4.354
36.046	-7.208	-4.596
36.046	-7.190	-4.941
35.947	-7.178	-5.178
35.848	-7.165	-5.416
35.748	-7.159	-5.653
35.714	-7.135	-5.964
35.617	-7.123	-6.199
35.457	-7.123	-6.359
35.360	-7.117	-6.594
35.263	-7.104	-6.829
35.105	-7.104	-6.987
34.946	-7.104	-7.147
34.786	-7.104	-7.306
34.626	-7.104	-7.466
34.402	-7.117	-7.552
34.242	-7.117	-7.712
34.018	-7.123	-7.798
33.791	-7.135	-7.887
33.566	-7.147	-7.974
33.339	-7.159	-8.063
33.113	-7.165	-8.151
32.819	-7.190	-8.168
32.556	-7.202	-8.224
32.327	-7.208	-8.315
32.098	-7.221	-8.406
31.869	-7.233	-8.497
16.867	-8.716	-3.612
16.746	-8.704	-3.871
16.659	-8.697	-4.164
16.539	-8.685	-4.423
16.495	-8.661	-4.743
16.375	-8.655	-5.002
16.254	-8.643	-5.261
16.215	-8.618	-5.576
16.094	-8.612	-5.835
15.978	-8.600	-6.089
15.939	-8.582	-6.404
15.745	-8.582	-6.598
15.628	-8.569	-6.853
15.438	-8.569	-7.043
15.244	-8.569	-7.237
15.054	-8.569	-7.427
14.782	-8.582	-7.561
14.510	-8.588	-7.695
14.243	-8.600	-7.824
13.971	-8.612	-7.958
13.699	-8.618	-8.092
13.427	-8.630	-8.225
13.233	-8.630	-8.420
12.957	-8.643	-8.558
-4.074	-10.352	-2.731
-3.892	-10.297	-3.241
-3.953	-10.278	-3.577
-3.936	-10.242	-3.974
-3.875	-10.211	-4.397
-3.936	-10.193	-4.734
-3.996	-10.168	-5.071
-4.134	-10.156	-5.347
-4.195	-10.138	-5.683
-4.333	-10.126	-5.960
-4.480	-10.120	-6.244
-4.618	-10.107	-6.521
-4.756	-10.095	-6.797
-4.989	-10.095	-7.030
-5.213	-10.095	-7.254
-5.438	-10.095	-7.479
-5.662	-10.095	-7.703
-5.895	-10.095	-7.936
-6.206	-10.107	-8.109
-6.430	-10.107	-8.333
-6.741	-10.120	-8.506
36.763	-8.887	14.834
36.625	-8.875	14.558
36.426	-8.875	14.359
36.288	-8.862	14.083
36.098	-8.862	13.893
35.951	-8.850	13.608
35.761	-8.850	13.418
35.571	-8.850	13.229
35.321	-8.862	13.116
35.131	-8.862	12.926
34.890	-8.875	12.823
34.639	-8.887	12.711
34.398	-8.893	12.607
34.147	-8.905	12.495
33.897	-8.917	12.383
33.655	-8.929	12.279
33.353	-8.948	12.253
33.103	-8.960	12.141
32.852	-8.972	12.029
32.568	-8.984	11.951
32.317	-8.990	11.839
32.067	-9.003	11.727
36.249	-7.458	-4.117
36.150	-7.452	-4.354
36.046	-7.440	-4.596
36.046	-7.416	-4.941
35.947	-7.404	-5.178
35.848	-7.397	-5.416
35.809	-7.373	-5.731
35.714	-7.361	-5.964
35.617	-7.349	-6.199
35.520	-7.343	-6.434
35.360	-7.343	-6.594
35.263	-7.330	-6.829
35.105	-7.330	-6.987
34.946	-7.330	-7.147
34.786	-7.330	-7.306
34.626	-7.330	-7.466
34.467	-7.330	-7.626
34.242	-7.343	-7.712
34.018	-7.349	-7.798
33.791	-7.361	-7.887
33.566	-7.373	-7.974
33.339	-7.385	-8.063
33.113	-7.397	-8.151
32.819	-7.416	-8.168
32.556	-7.428	-8.224
32.327	-7.440	-8.315
32.098	-7.452	-8.406
31.869	-7.458	-8.497
16.867	-8.990	-3.612
16.746	-8.984	-3.871
16.659	-8.972	-4.164
16.539	-8.960	-4.423
16.495	-8.936	-4.743
16.375	-8.929	-5.002
16.254	-8.917	-5.261
16.215	-8.893	-5.576
16.094	-8.887	-5.835
15.978	-8.875	-6.089
15.939	-8.850	-6.404
15.745	-8.850	-6.598
15.628	-8.838	-6.853
15.438	-8.838	-7.043
15.244	-8.838	-7.237
15.054	-8.838	-7.427
14.782	-8.850	-7.561
14.510	-8.862	-7.695
14.320	-8.862	-7.885
14.048	-8.875	-8.018
13.777	-8.887	-8.152
13.505	-8.893	-8.286
13.233	-8.905	-8.420
13.038	-8.905	-8.614
-4.177	-10.724	-2.283
-4.160	-10.687	-2.680
-3.979	-10.632	-3.189
-3.953	-10.602	-3.577
-3.936	-10.571	-3.974
-3.875	-10.535	-4.397
-3.936	-10.516	-4.734
-3.996	-10.492	-5.071
-4.048	-10.474	-5.399
-4.195	-10.461	-5.683
-4.333	-10.449	-5.960
-4.393	-10.425	-6.296
-4.618	-10.425	-6.521
-4.756	-10.419	-6.797
-4.989	-10.419	-7.030
-5.127	-10.407	-7.306
-5.351	-10.407	-7.531
-5.662	-10.419	-7.703
-5.895	-10.419	-7.936
-6.206	-10.425	-8.109
-6.430	-10.425	-8.333
-6.655	-10.425	-8.558
36.961	-9.155	15.033
36.814	-9.143	14.748
36.625	-9.143	14.558
36.426	-9.143	14.359
36.288	-9.137	14.083
36.098	-9.137	13.893
35.951	-9.125	13.608
35.761	-9.125	13.418
35.571	-9.125	13.229
35.373	-9.125	13.030
35.131	-9.137	12.926
34.890	-9.143	12.823
34.639	-9.155	12.711
34.398	-9.168	12.607
34.147	-9.180	12.495
33.897	-9.192	12.383
33.655	-9.204	12.279
33.405	-9.216	12.167
33.103	-9.235	12.141
32.852	-9.247	12.029
32.568	-9.259	11.951
32.317	-9.271	11.839
32.119	-9.271	11.640
36.292	-7.715	-3.797
36.309	-7.678	-4.194
36.150	-7.678	-4.354
36.111	-7.654	-4.669
36.046	-7.648	-4.941
35.947	-7.636	-5.178
35.848	-7.623	-5.416
35.809	-7.599	-5.731
35.714	-7.587	-5.964
35.617	-7.581	-6.199
35.520	-7.568	-6.434
35.360	-7.568	-6.594
35.263	-7.556	-6.829
35.105	-7.556	-6.987
34.946	-7.556	-7.147
34.786	-7.556	-7.306
34.626	-7.556	-7.466
34.467	-7.556	-7.626
34.242	-7.568	-7.712
34.018	-7.581	-7.798
33.791	-7.587	-7.887
33.566	-7.599	-7.974
33.339	-7.611	-8.063
33.113	-7.623	-8.151
32.819	-7.648	-8.168
32.556	-7.654	-8.224
32.327	-7.666	-8.315
32.098	-7.678	-8.406
31.936	-7.678	-8.567
16.854	-9.247	-3.970
16.733	-9.235	-4.229
16.612	-9.222	-4.488
16.495	-9.216	-4.743
16.375	-9.204	-5.002
16.254	-9.192	-5.261
16.215	-9.168	-5.576
16.094	-9.155	-5.835
15.978	-9.143	-6.089
15.861	-9.137	-6.344
15.745	-9.125	-6.598
15.628	-9.112	-6.853
15.438	-9.112	-7.043
15.244	-9.112	-7.237
15.054	-9.112	-7.427
14.782	-9.125	-7.561
14.588	-9.125	-7.755
14.320	-9.137	-7.885
14.048	-9.143	-8.018
13.777	-9.155	-8.152
13.505	-9.168	-8.286
13.233	-9.180	-8.420
13.038	-9.180	-8.614
-4.177	-11.053	-2.283
-4.160	-11.017	-2.680
-4.057	-10.974	-3.129
-3.953	-10.925	-3.577
-3.936	-10.895	-3.974
-3.875	-10.858	-4.397
-3.936	-10.840	-4.734
-3.996	-10.815	-5.071
-4.048	-10.791	-5.399
-4.195	-10.779	-5.683
-4.246	-10.761	-6.011
-4.393	-10.748	-6.296
-4.531	-10.736	-6.573
-4.756	-10.736	-6.797
-4.902	-10.724	-7.082
-5.127	-10.724	-7.306
-5.351	-10.724	-7.531
-5.576	-10.724	-7.755
-5.895	-10.736	-7.936
-6.120	-10.736	-8.161
-6.430	-10.748	-8.333
-6.655	-10.748	-8.558
36.961	-9.430	15.033
36.814	-9.418	14.748
36.625	-9.418	14.558
36.478	-9.405	14.273
36.288	-9.405	14.083
36.150	-9.393	13.807
35.951	-9.393	13.608
35.761	-9.393	13.418
35.571	-9.393	13.229
35.373	-9.393	13.030
35.183	-9.393	12.840
34.941	-9.405	12.737
34.691	-9.418	12.624
34.449	-9.430	12.521
34.199	-9.442	12.409
33.897	-9.467	12.383
33.655	-9.479	12.279
33.405	-9.491	12.167
33.155	-9.497	12.055
32.852	-9.521	12.029
32.568	-9.534	11.951
32.317	-9.546	11.839
32.119	-9.546	11.640
36.309	-7.910	-4.194
36.210	-7.898	-4.432
36.111	-7.886	-4.669
36.046	-7.873	-4.941
35.947	-7.861	-5.178
35.908	-7.837	-5.494
35.809	-7.825	-5.731
35.714	-7.812	-5.964
35.617	-7.806	-6.199
35.520	-7.794	-6.434
35.423	-7.782	-6.670
35.263	-7.782	-6.829
35.105	-7.782	-6.987
34.946	-7.782	-7.147
34.786	-7.782	-7.306
34.626	-7.782	-7.466
34.467	-7.782	-7.626
34.242	-7.794	-7.712
34.018	-7.806	-7.798
33.791	-7.812	-7.887
33.566	-7.825	-7.974
33.339	-7.837	-8.063
33.113	-7.849	-8.151
32.819	-7.873	-8.168
32.556	-7.886	-8.224
32.327	-7.898	-8.315
32.098	-7.910	-8.406
31.936	-7.910	-8.567
16.854	-9.521	-3.970
16.733	-9.509	-4.229
16.612	-9.497	-4.488
16.495	-9.491	-4.743
16.375	-9.479	-5.002
16.254	-9.467	-5.261
16.215	-9.442	-5.576
16.094	-9.430	-5.835
15.978	-9.418	-6.089
15.861	-9.405	-6.344
15.745	-9.393	-6.598
15.628	-9.381	-6.853
15.438	-9.381	-7.043
15.244	-9.381	-7.237
15.054	-9.381	-7.427
14.860	-9.381	-7.621
14.588	-9.393	-7.755
14.320	-9.405	-7.885
14.048	-9.418	-8.018
13.777	-9.430	-8.152
13.505	-9.442	-8.286
13.310	-9.442	-8.480
13.038	-9.454	-8.614
-4.074	-11.334	-2.731
-4.057	-11.304	-3.129
-3.953	-11.255	-3.577
-3.936	-11.218	-3.974
-3.875	-11.182	-4.397
-3.936	-11.163	-4.734
-3.996	-11.139	-5.071
-4.048	-11.114	-5.399
-4.108	-11.090	-5.735
-4.246	-11.078	-6.011
-4.393	-11.066	-6.296
-4.531	-11.060	-6.573
-4.669	-11.047	-6.849
-4.902	-11.047	-7.082
-5.127	-11.047	-7.306
-5.351	-11.047	-7.531
-5.576	-11.047	-7.755
-5.809	-11.047	-7.988
-6.120	-11.060	-8.161
-6.344	-11.060	-8.385
-6.655	-11.066	-8.558
36.961	-9.705	15.033
36.814	-9.692	14.748
36.625	-9.692	14.558
36.478	-9.680	14.273
36.340	-9.668	13.997
36.150	-9.668	13.807
36.003	-9.656	13.522
35.813	-9.656	13.332
35.623	-9.656	13.142
35.425	-9.656	12.944
35.183	-9.668	12.840
34.941	-9.680	12.737
34.691	-9.692	12.624
34.449	-9.705	12.521
34.199	-9.717	12.409
33.957	-9.729	12.305
33.707	-9.741	12.193
33.405	-9.766	12.167
33.155	-9.778	12.055
32.904	-9.790	11.942
32.654	-9.802	11.830
32.369	-9.808	11.753
32.119	-9.821	11.640
36.309	-8.136	-4.194
36.210	-8.124	-4.432
36.111	-8.112	-4.669
36.046	-8.099	-4.941
36.007	-8.075	-5.256
35.908	-8.069	-5.494
35.809	-8.057	-5.731
35.714	-8.044	-5.964
35.617	-8.032	-6.199
35.520	-8.020	-6.434
35.423	-8.008	-6.670
35.263	-8.008	-6.829
35.105	-8.008	-6.987
35.008	-7.996	-7.222
34.786	-8.008	-7.306
34.626	-8.008	-7.466
34.467	-8.008	-7.626
34.242	-8.020	-7.712
34.018	-8.032	-7.798
33.791	-8.044	-7.887
33.566	-8.057	-7.974
33.339	-8.069	-8.063
33.113	-8.075	-8.151
32.819	-8.099	-8.168
32.556	-8.112	-8.224
32.327	-8.124	-8.315
32.098	-8.136	-8.406
31.936	-8.136	-8.567
31.707	-8.148	-8.659
16.854	-9.802	-3.970
16.733	-9.790	-4.229
16.612	-9.778	-4.488
16.495	-9.766	-4.743
16.375	-9.753	-5.002
16.254	-9.741	-5.261
16.215	-9.717	-5.576
16.094	-9.705	-5.835
15.978	-9.692	-6.089
15.861	-9.680	-6.344
15.745	-9.668	-6.598
15.628	-9.656	-6.853
15.438	-9.656	-7.043
15.244	-9.656	-7.237
15.054	-9.656	-7.427
14.860	-9.656	-7.621
14.588	-9.668	-7.755
14.320	-9.680	-7.885
14.048	-9.692	-8.018
13.854	-9.692	-8.212
13.582	-9.705	-8.346
13.310	-9.717	-8.480
13.038	-9.729	-8.614
-4.074	-11.664	-2.731
-4.057	-11.627	-3.129
-3.953	-11.578	-3.577
-3.936	-11.542	-3.974
-3.875	-11.511	-4.397
-3.936	-11.487	-4.734
-3.910	-11.450	-5.122
-4.048	-11.438	-5.399
-4.108	-11.414	-5.735
-4.246	-11.401	-6.011
-4.393	-11.389	-6.296
-4.531	-11.377	-6.573
-4.669	-11.365	-6.849
-4.816	-11.353	-7.134
-5.041	-11.353	-7.358
-5.265	-11.353	-7.582
-5.489	-11.353	-7.807
-5.809	-11.365	-7.988
-6.033	-11.365	-8.212
-6.344	-11.377	-8.385
-6.568	-11.377	-8.610
36.961	-9.979	15.033
36.814	-9.967	14.748
36.625	-9.967	14.558
36.478	-9.955	14.273
36.340	-9.943	13.997
36.150	-9.943	13.807
36.003	-9.930	13.522
35.813	-9.930	13.332
35.623	-9.930	13.142
35.425	-9.930	12.944
35.183	-9.943	12.840
34.993	-9.943	12.650
34.743	-9.955	12.538
34.501	-9.967	12.434
34.199	-9.992	12.409
33.957	-10.004	12.305
33.707	-10.016	12.193
33.457	-10.028	12.081
33.155	-10.053	12.055
32.904	-10.065	11.942
32.654	-10.077	11.830
32.369	-10.089	11.753
32.119	-10.101	11.640
36.370	-8.356	-4.272
36.210	-8.356	-4.432
36.111	-8.343	-4.669
36.107	-8.319	-5.019
36.007	-8.307	-5.256
35.908	-8.295	-5.494
35.809	-8.282	-5.731
35.714	-8.270	-5.964
35.617	-8.258	-6.199
35.520	-8.246	-6.434
35.423	-8.234	-6.670
35.263	-8.234	-6.829
35.168	-8.221	-7.062
35.008	-8.221	-7.222
34.851	-8.221	-7.380
34.626	-8.234	-7.466
34.467	-8.234	-7.626
34.242	-8.246	-7.712
34.018	-8.258	-7.798
33.791	-8.270	-7.887
33.566	-8.282	-7.974
33.339	-8.295	-8.063
33.113	-8.307	-8.151
32.819	-8.331	-8.168
32.556	-8.343	-8.224
32.327	-8.356	-8.315
32.098	-8.368	-8.406
31.936	-8.368	-8.567
31.775	-8.368	-8.729
16.854	-10.077	-3.970
16.733	-10.065	-4.229
16.612	-10.053	-4.488
16.495	-10.040	-4.743
16.375	-10.028	-5.002
16.254	-10.016	-5.261
16.215	-9.992	-5.576
16.094	-9.979	-5.835
15.978	-9.967	-6.089
15.861	-9.955	-6.344
15.745	-9.943	-6.598
15.628	-9.930	-6.853
15.438	-9.930	-7.043
15.244	-9.930	-7.237
15.054	-9.930	-7.427
14.860	-9.930	-7.621
14.588	-9.943	-7.755
14.320	-9.955	-7.885
14.126	-9.955	-8.079
13.854	-9.967	-8.212
13.582	-9.979	-8.346
13.310	-9.992	-8.480
13.038	-10.004	-8.614
-4.074	-11.993	-2.731
-3.979	-11.945	-3.189
-3.953	-11.908	-3.577
-3.936	-11.871	-3.974
-3.875	-11.835	-4.397
-3.849	-11.798	-4.786
-3.910	-11.774	-5.122
-3.970	-11.749	-5.459
-4.108	-11.737	-5.735
-4.169	-11.713	-6.072
-4.307	-11.700	-6.348
-4.445	-11.688	-6.624
-4.583	-11.676	-6.901
-4.816	-11.676	-7.134
-5.041	-11.676	-7.358
-5.265	-11.676	-7.582
-5.489	-11.676	-7.807
-5.714	-11.676	-8.031
-6.033	-11.688	-8.212
-6.344	-11.700	-8.385
-6.568	-11.700	-8.610
-6.793	-11.700	-8.834
36.961	-10.248	15.033
36.814	-10.236	14.748
36.676	-10.223	14.472
36.478	-10.223	14.273
36.340	-10.211	13.997
36.202	-10.199	13.721
36.003	-10.199	13.522
35.813	-10.199	13.332
35.675	-10.187	13.056
35.425	-10.199	12.944
35.235	-10.199	12.754
34.993	-10.211	12.650
34.743	-10.223	12.538
34.501	-10.236	12.434
34.251	-10.248	12.322
34.009	-10.260	12.219
33.707	-10.290	12.193
33.457	-10.303	12.081
33.206	-10.315	11.968
32.904	-10.339	11.942
32.654	-10.352	11.830
32.369	-10.364	11.753
32.179	-10.364	11.563
36.370	-8.582	-4.272
36.271	-8.569	-4.510
36.206	-8.557	-4.781
36.107	-8.545	-5.019
36.007	-8.533	-5.256
35.908	-8.521	-5.494
35.874	-8.496	-5.804
35.776	-8.484	-6.040
35.679	-8.472	-6.275
35.520	-8.472	-6.434
35.423	-8.460	-6.670
35.263	-8.460	-6.829
35.168	-8.447	-7.062
35.008	-8.447	-7.222
34.851	-8.447	-7.380
34.626	-8.460	-7.466
34.467	-8.460	-7.626
34.242	-8.472	-7.712
34.018	-8.484	-7.798
33.791	-8.496	-7.887
33.566	-8.508	-7.974
33.339	-8.521	-8.063
33.113	-8.533	-8.151
32.885	-8.545	-8.241
32.556	-8.569	-8.224
32.327	-8.582	-8.315
32.165	-8.582	-8.477
31.936	-8.594	-8.567
31.775	-8.594	-8.729
16.927	-10.339	-4.035
16.733	-10.339	-4.229
16.612	-10.327	-4.488
16.495	-10.315	-4.743
16.375	-10.303	-5.002
16.254	-10.290	-5.261
16.215	-10.260	-5.576
16.094	-10.248	-5.835
15.978	-10.236	-6.089
15.861	-10.223	-6.344
15.745	-10.211	-6.598
15.628	-10.199	-6.853
15.438	-10.199	-7.043
15.244	-10.199	-7.237
15.054	-10.199	-7.427
14.860	-10.199	-7.621
14.588	-10.211	-7.755
14.320	-10.223	-7.885
14.126	-10.223	-8.079
13.854	-10.236	-8.212
13.582	-10.248	-8.346
13.310	-10.260	-8.480
13.038	-10.278	-8.614
12.767	-10.290	-8.748
-3.996	-12.311	-2.792
-3.979	-12.268	-3.189
-3.953	-12.231	-3.577
-3.849	-12.183	-4.026
-3.875	-12.158	-4.397
-3.849	-12.122	-4.786
-3.910	-12.091	-5.122
-3.970	-12.067	-5.459
-4.108	-12.054	-5.735
-4.169	-12.030	-6.072
-4.307	-12.018	-6.348
-4.445	-12.006	-6.624
-4.583	-11.993	-6.901
-4.816	-11.993	-7.134
-4.954	-11.981	-7.410
-5.179	-11.981	-7.634
-5.489	-11.993	-7.807
-5.714	-11.993	-8.031
-6.033	-12.006	-8.212
-6.258	-12.006	-8.437
-6.568	-12.018	-8.610
-6.793	-12.018	-8.834
36.814	-10.510	14.748
36.676	-10.498	14.472
36.478	-10.498	14.273
36.340	-10.486	13.997
36.202	-10.474	13.721
36.003	-10.474	13.522
35.865	-10.461	13.246
35.675	-10.461	13.056
35.485	-10.461	12.866
35.235	-10.474	12.754
34.993	-10.486	12.650
34.803	-10.486	12.460
34.501	-10.510	12.434
34.251	-10.522	12.322
34.009	-10.535	12.219
33.759	-10.547	12.106
33.457	-10.577	12.081
33.206	-10.590	11.968
32.904	-10.614	11.942
32.654	-10.626	11.830
32.369	-10.638	11.753
32.179	-10.638	11.563
36.370	-8.814	-4.272
36.271	-8.801	-4.510
36.206	-8.789	-4.781
36.107	-8.771	-5.019
36.007	-8.758	-5.256
35.968	-8.734	-5.571
35.874	-8.722	-5.804
35.776	-8.710	-6.040
35.679	-8.697	-6.275
35.520	-8.697	-6.434
35.423	-8.685	-6.670
35.263	-8.685	-6.829
35.168	-8.667	-7.062
35.008	-8.667	-7.222
34.851	-8.667	-7.380
34.626	-8.685	-7.466
34.467	-8.685	-7.626
34.242	-8.697	-7.712
34.082	-8.697	-7.872
33.858	-8.710	-7.958
33.566	-8.734	-7.974
33.339	-8.746	-8.063
33.113	-8.758	-8.151
32.885	-8.771	-8.241
32.657	-8.789	-8.330
32.395	-8.801	-8.385
32.165	-8.814	-8.477
31.936	-8.826	-8.567
31.775	-8.826	-8.729
16.927	-10.614	-4.035
16.808	-10.602	-4.292
16.612	-10.602	-4.488
16.495	-10.590	-4.743
16.375	-10.577	-5.002
16.254	-10.565	-5.261
16.215	-10.535	-5.576
16.094	-10.522	-5.835
15.978	-10.510	-6.089
15.861	-10.498	-6.344
15.745	-10.486	-6.598
15.628	-10.474	-6.853
15.438	-10.474	-7.043
15.244	-10.474	-7.237
15.054	-10.474	-7.427
14.860	-10.474	-7.621
14.588	-10.486	-7.755
14.320	-10.498	-7.885
14.126	-10.498	-8.079
13.854	-10.510	-8.212
13.582	-10.522	-8.346
13.310	-10.535	-8.480
13.038	-10.547	-8.614
12.767	-10.565	-8.748
-3.996	-12.634	-2.792
-3.979	-12.598	-3.189
-3.953	-12.561	-3.577
-3.849	-12.500	-4.026
-3.875	-12.482	-4.397
-3.849	-12.445	-4.786
-3.910	-12.415	-5.122
-3.970	-12.390	-5.459
-4.022	-12.366	-5.787
-4.169	-12.354	-6.072
-4.307	-12.341	-6.348
-4.445	-12.323	-6.624
-4.583	-12.311	-6.901
-4.730	-12.299	-7.185
-4.954	-12.299	-7.410
-5.179	-12.299	-7.634
-5.403	-12.299	-7.859
-5.714	-12.311	-8.031
-6.033	-12.323	-8.212
-6.258	-12.323	-8.437
-6.568	-12.341	-8.610
-6.793	-12.341	-8.834
36.814	-10.785	14.748
36.676	-10.773	14.472
36.478	-10.773	14.273
36.340	-10.754	13.997
36.202	-10.742	13.721
36.003	-10.742	13.522
35.865	-10.730	13.246
35.675	-10.730	13.056
35.485	-10.730	12.866
35.235	-10.742	12.754
35.045	-10.742	12.564
34.803	-10.754	12.460
34.553	-10.773	12.348
34.311	-10.785	12.245
34.009	-10.809	12.219
33.759	-10.822	12.106
33.457	-10.852	12.081
33.206	-10.864	11.968
32.956	-10.877	11.856
32.654	-10.901	11.830
32.369	-10.919	11.753
32.179	-10.919	11.563
36.435	-9.027	-4.346
36.271	-9.027	-4.510
36.206	-9.015	-4.781
36.167	-8.990	-5.096
36.068	-8.972	-5.334
35.968	-8.960	-5.571
35.874	-8.948	-5.804
35.776	-8.936	-6.040
35.679	-8.923	-6.275
35.520	-8.923	-6.434
35.423	-8.911	-6.670
35.263	-8.911	-6.829
35.168	-8.893	-7.062
35.008	-8.893	-7.222
34.851	-8.893	-7.380
34.626	-8.911	-7.466
34.467	-8.911	-7.626
34.242	-8.923	-7.712
34.082	-8.923	-7.872
33.858	-8.936	-7.958
33.631	-8.948	-8.046
33.339	-8.972	-8.063
33.113	-8.990	-8.151
32.885	-9.003	-8.241
32.657	-9.015	-8.330
32.395	-9.027	-8.385
32.165	-9.039	-8.477
32.004	-9.039	-8.638
31.775	-9.051	-8.729
16.927	-10.889	-4.035
16.808	-10.877	-4.292
16.612	-10.877	-4.488
16.495	-10.864	-4.743
16.375	-10.852	-5.002
16.331	-10.822	-5.321
16.215	-10.809	-5.576
16.094	-10.797	-5.835
15.978	-10.785	-6.089
15.861	-10.773	-6.344
15.745	-10.754	-6.598
15.628	-10.742	-6.853
15.438	-10.742	-7.043
15.244	-10.742	-7.237
15.054	-10.742	-7.427
14.860	-10.742	-7.621
14.588	-10.754	-7.755
14.320	-10.773	-7.885
14.048	-10.785	-8.018
13.777	-10.797	-8.152
13.505	-10.809	-8.286
13.233	-10.822	-8.420
13.038	-10.822	-8.614
12.767	-10.834	-8.748
-4.074	-12.976	-2.731
-3.979	-12.927	-3.189
-3.953	-12.878	-3.577
-3.849	-12.830	-4.026
-3.875	-12.805	-4.397
-3.849	-12.756	-4.786
-3.910	-12.732	-5.122
-3.970	-12.707	-5.459
-4.022	-12.683	-5.787
-4.169	-12.671	-6.072
-4.221	-12.646	-6.400
-4.359	-12.634	-6.676
-4.497	-12.610	-6.952
-4.730	-12.610	-7.185
-4.954	-12.610	-7.410
-5.179	-12.610	-7.634
-5.403	-12.610	-7.859
-5.714	-12.634	-8.031
-5.947	-12.634	-8.264
-6.258	-12.646	-8.437
-6.568	-12.659	-8.610
-6.793	-12.659	-8.834
36.814	-11.053	14.748
36.676	-11.041	14.472
36.530	-11.029	14.187
36.340	-11.029	13.997
36.202	-11.017	13.721
36.055	-11.005	13.436
35.865	-11.005	13.246
35.675	-11.005	13.056
35.485	-11.005	12.866
35.287	-11.005	12.668
35.045	-11.017	12.564
34.803	-11.029	12.460
34.553	-11.041	12.348
34.311	-11.053	12.245
34.009	-11.084	12.219
33.759	-11.096	12.106
33.509	-11.108	11.994
33.206	-11.139	11.968
32.956	-11.151	11.856
32.654	-11.182	11.830
32.369	-11.194	11.753
32.179	-11.194	11.563
31.981	-11.194	11.364
36.534	-9.271	-4.108
36.435	-9.259	-4.346
36.366	-9.241	-4.622
36.266	-9.229	-4.859
36.167	-9.216	-5.096
36.068	-9.204	-5.334
35.968	-9.186	-5.571
35.874	-9.174	-5.804
35.776	-9.161	-6.040
35.679	-9.149	-6.275
35.582	-9.131	-6.510
35.423	-9.131	-6.670
35.263	-9.131	-6.829
35.168	-9.119	-7.062
35.008	-9.119	-7.222
34.851	-9.119	-7.380
34.626	-9.131	-7.466
34.467	-9.131	-7.626
34.242	-9.149	-7.712
34.082	-9.149	-7.872
33.858	-9.161	-7.958
33.631	-9.174	-8.046
33.406	-9.186	-8.134
33.113	-9.216	-8.151
32.885	-9.229	-8.241
32.657	-9.241	-8.330
32.395	-9.259	-8.385
32.165	-9.271	-8.477
32.004	-9.271	-8.638
31.842	-9.271	-8.800
16.927	-11.163	-4.035
16.733	-11.163	-4.229
16.612	-11.151	-4.488
16.495	-11.139	-4.743
16.375	-11.127	-5.002
16.331	-11.096	-5.321
16.215	-11.084	-5.576
16.094	-11.072	-5.835
15.978	-11.053	-6.089
15.861	-11.041	-6.344
15.745	-11.029	-6.598
15.628	-11.017	-6.853
15.438	-11.017	-7.043
15.244	-11.017	-7.237
15.054	-11.017	-7.427
14.860	-11.017	-7.621
14.588	-11.029	-7.755
14.320	-11.041	-7.885
14.048	-11.053	-8.018
13.777	-11.072	-8.152
13.505	-11.084	-8.286
13.233	-11.096	-8.420
12.957	-11.108	-8.558
12.767	-11.108	-8.748
-4.074	-13.306	-2.731
-3.979	-13.245	-3.189
-3.953	-13.208	-3.577
-3.849	-13.159	-4.026
-3.875	-13.123	-4.397
-3.849	-13.086	-4.786
-3.910	-13.062	-5.122
-3.970	-13.025	-5.459
-4.022	-13.001	-5.787
-4.169	-12.988	-6.072
-4.221	-12.964	-6.400
-4.359	-12.952	-6.676
-4.497	-12.940	-6.952
-4.730	-12.940	-7.185
-4.868	-12.927	-7.462
-5.092	-12.927	-7.686
-5.403	-12.940	-7.859
-5.628	-12.940	-8.083
-5.947	-12.952	-8.264
-6.258	-12.964	-8.437
-6.482	-12.964	-8.661
-6.793	-12.976	-8.834
36.866	-11.316	14.661
36.676	-11.316	14.472
36.530	-11.304	14.187
36.391	-11.285	13.910
36.202	-11.285	13.721
36.055	-11.273	13.436
35.865	-11.273	13.246
35.675	-11.273	13.056
35.485	-11.273	12.866
35.287	-11.273	12.668
35.045	-11.285	12.564
34.803	-11.304	12.460
34.553	-11.316	12.348
34.311	-11.328	12.245
34.061	-11.340	12.132
33.759	-11.371	12.106
33.509	-11.383	11.994
33.206	-11.414	11.968
32.956	-11.426	11.856
32.654	-11.456	11.830
32.369	-11.468	11.753
32.179	-11.468	11.563
31.981	-11.468	11.364
31.929	-11.444	10.967
36.594	-9.485	-4.186
36.435	-9.485	-4.346
36.366	-9.473	-4.622
36.266	-9.454	-4.859
36.167	-9.442	-5.096
36.068	-9.430	-5.334
35.968	-9.418	-5.571
35.874	-9.399	-5.804
35.776	-9.387	-6.040
35.679	-9.375	-6.275
35.582	-9.357	-6.510
35.423	-9.357	-6.670
35.263	-9.357	-6.829
35.168	-9.345	-7.062
35.008	-9.345	-7.222
34.851	-9.345	-7.380
34.626	-9.357	-7.466
34.467	-9.357	-7.626
34.307	-9.357	-7.785
34.082	-9.375	-7.872
33.858	-9.387	-7.958
33.631	-9.399	-8.046
33.406	-9.418	-8.134
33.179	-9.430	-8.222
32.885	-9.454	-8.241
32.657	-9.473	-8.330
32.395	-9.485	-8.385
32.233	-9.485	-8.547
32.004	-9.497	-8.638
31.842	-9.497	-8.800
16.854	-11.456	-3.970
16.733	-11.444	-4.229
16.612	-11.426	-4.488
16.495	-11.414	-4.743
16.375	-11.401	-5.002
16.331	-11.371	-5.321
16.215	-11.359	-5.576
16.094	-11.340	-5.835
15.978	-11.328	-6.089
15.861	-11.316	-6.344
15.745	-11.304	-6.598
15.628	-11.285	-6.853
15.438	-11.285	-7.043
15.244	-11.285	-7.237
15.054	-11.285	-7.427
14.782	-11.304	-7.561
14.588	-11.304	-7.755
14.320	-11.316	-7.885
14.048	-11.328	-8.018
13.777	-11.340	-8.152
13.505	-11.359	-8.286
13.233	-11.371	-8.420
12.957	-11.383	-8.558
12.767	-11.383	-8.748
-4.074	-13.635	-2.731
-3.979	-13.574	-3.189
-3.953	-13.538	-3.577
-3.849	-13.477	-4.026
-3.789	-13.440	-4.449
-3.849	-13.403	-4.786
-3.910	-13.379	-5.122
-3.970	-13.354	-5.459
-4.022	-13.330	-5.787
-4.082	-13.293	-6.124
-4.221	-13.281	-6.400
-4.359	-13.269	-6.676
-4.497	-13.257	-6.952
-4.643	-13.245	-7.237
-4.868	-13.245	-7.462
-5.092	-13.245	-7.686
-5.317	-13.245	-7.910
-5.628	-13.257	-8.083
-5.947	-13.269	-8.264
-6.171	-13.269	-8.489
-6.482	-13.281	-8.661
-6.706	-13.281	-8.886
37.013	-11.603	14.946
36.866	-11.591	14.661
36.676	-11.591	14.472
36.530	-11.572	14.187
36.391	-11.560	13.910
36.253	-11.548	13.634
36.055	-11.548	13.436
35.865	-11.548	13.246
35.727	-11.529	12.970
35.537	-11.529	12.780
35.287	-11.548	12.668
35.045	-11.560	12.564
34.855	-11.560	12.374
34.553	-11.591	12.348
34.311	-11.603	12.245
34.061	-11.615	12.132
33.759	-11.646	12.106
33.509	-11.658	11.994
33.206	-11.688	11.968
32.956	-11.700	11.856
32.654	-11.731	11.830
32.464	-11.731	11.640
32.179	-11.743	11.563
31.981	-11.743	11.364
31.929	-11.719	10.967
36.594	-9.711	-4.186
36.530	-9.699	-4.458
36.426	-9.686	-4.699
36.266	-9.686	-4.859
36.167	-9.668	-5.096
36.133	-9.644	-5.407
36.033	-9.625	-5.645
35.934	-9.613	-5.882
35.776	-9.613	-6.040
35.679	-9.601	-6.275
35.582	-9.582	-6.510
35.423	-9.582	-6.670
35.263	-9.582	-6.829
35.168	-9.570	-7.062
35.008	-9.570	-7.222
34.851	-9.570	-7.380
34.626	-9.582	-7.466
34.467	-9.582	-7.626
34.307	-9.582	-7.785
34.082	-9.601	-7.872
33.858	-9.613	-7.958
33.631	-9.625	-8.046
33.406	-9.644	-8.134
33.179	-9.656	-8.222
32.952	-9.668	-8.312
32.724	-9.686	-8.401
32.496	-9.699	-8.491
32.233	-9.711	-8.547
32.072	-9.711	-8.708
31.842	-9.729	-8.800
16.854	-11.731	-3.970
16.733	-11.719	-4.229
16.612	-11.700	-4.488
16.495	-11.688	-4.743
16.375	-11.676	-5.002
16.331	-11.646	-5.321
16.215	-11.633	-5.576
16.094	-11.615	-5.835
15.978	-11.603	-6.089
15.861	-11.591	-6.344
15.745	-11.572	-6.598
15.628	-11.560	-6.853
15.438	-11.560	-7.043
15.244	-11.560	-7.237
15.054	-11.560	-7.427
14.782	-11.572	-7.561
14.588	-11.572	-7.755
14.320	-11.591	-7.885
14.048	-11.603	-8.018
13.777	-11.615	-8.152
13.505	-11.633	-8.286
13.233	-11.646	-8.420
12.957	-11.658	-8.558
12.767	-11.658	-8.748
-4.074	-13.965	-2.731
-3.979	-13.904	-3.189
-3.953	-13.855	-3.577
-3.849	-13.806	-4.026
-3.789	-13.757	-4.449
-3.849	-13.733	-4.786
-3.910	-13.709	-5.122
-3.970	-13.672	-5.459
-4.022	-13.648	-5.787
-4.082	-13.623	-6.124
-4.221	-13.599	-6.400
-4.359	-13.586	-6.676
-4.497	-13.574	-6.952
-4.643	-13.562	-7.237
-4.868	-13.562	-7.462
-5.092	-13.562	-7.686
-5.317	-13.562	-7.910
-5.541	-13.562	-8.135
-5.843	-13.574	-8.299
-6.171	-13.586	-8.489
-6.396	-13.586	-8.713
-6.706	-13.599	-8.886
37.013	-11.877	14.946
36.866	-11.859	14.661
36.728	-11.847	14.385
36.530	-11.847	14.187
36.391	-11.829	13.910
36.253	-11.816	13.634
36.055	-11.816	13.436
35.917	-11.804	13.159
35.727	-11.804	12.970
35.537	-11.804	12.780
35.287	-11.816	12.668
35.097	-11.816	12.478
34.855	-11.829	12.374
34.605	-11.847	12.262
34.311	-11.877	12.245
34.061	-11.890	12.132
33.759	-11.920	12.106
33.509	-11.932	11.994
33.206	-11.963	11.968
32.956	-11.975	11.856
32.654	-12.006	11.830
32.464	-12.006	11.640
32.179	-12.024	11.563
32.067	-12.006	11.243
31.989	-11.975	10.889
36.689	-9.924	-4.298
36.530	-9.924	-4.458
36.426	-9.912	-4.699
36.327	-9.900	-4.937
36.227	-9.882	-5.174
36.133	-9.869	-5.407
36.033	-9.851	-5.645
35.934	-9.839	-5.882
35.839	-9.827	-6.115
35.679	-9.827	-6.275
35.582	-9.808	-6.510
35.423	-9.808	-6.670
35.328	-9.796	-6.903
35.168	-9.796	-7.062
35.008	-9.796	-7.222
34.851	-9.796	-7.380
34.626	-9.808	-7.466
34.467	-9.808	-7.626
34.307	-9.808	-7.785
34.082	-9.827	-7.872
33.858	-9.839	-7.958
33.631	-9.851	-8.046
33.406	-9.869	-8.134
33.179	-9.882	-8.222
32.952	-9.900	-8.312
32.724	-9.912	-8.401
32.496	-9.924	-8.491
32.335	-9.924	-8.653
32.072	-9.943	-8.708
31.910	-9.943	-8.870
16.793	-12.048	-3.547
16.746	-12.024	-3.871
16.659	-12.006	-4.164
16.612	-11.975	-4.488
16.495	-11.963	-4.743
16.375	-11.951	-5.002
16.331	-11.920	-5.321
16.215	-11.902	-5.576
16.094	-11.890	-5.835
15.978	-11.877	-6.089
15.861	-11.859	-6.344
15.745	-11.847	-6.598
15.628	-11.829	-6.853
15.438	-11.829	-7.043
15.244	-11.829	-7.237
15.054	-11.829	-7.427
14.782	-11.847	-7.561
14.588	-11.847	-7.755
14.320	-11.859	-7.885
14.048	-11.877	-8.018
13.777	-11.890	-8.152
13.505	-11.902	-8.286
13.233	-11.920	-8.420
12.957	-11.932	-8.558
12.767	-11.932	-8.748
-3.996	-14.270	-2.792
-3.979	-14.233	-3.189
-3.867	-14.172	-3.629
-3.849	-14.123	-4.026
-3.789	-14.087	-4.449
-3.849	-14.050	-4.786
-3.823	-14.014	-5.174
-3.884	-13.977	-5.511
-4.022	-13.965	-5.787
-4.082	-13.940	-6.124
-4.221	-13.928	-6.400
-4.272	-13.892	-6.728
-4.497	-13.892	-6.952
-4.643	-13.879	-7.237
-4.782	-13.867	-7.513
-5.006	-13.867	-7.738
-5.317	-13.879	-7.910
-5.541	-13.879	-8.135
-5.843	-13.892	-8.299
-6.085	-13.892	-8.541
-6.396	-13.904	-8.713
-6.620	-13.904	-8.938
36.866	-12.134	14.661
36.728	-12.115	14.385
36.581	-12.103	14.100
36.391	-12.103	13.910
36.253	-12.091	13.634
36.107	-12.073	13.349
35.917	-12.073	13.159
35.727	-12.073	12.970
35.537	-12.073	12.780
35.338	-12.073	12.581
35.097	-12.091	12.478
34.855	-12.103	12.374
34.605	-12.115	12.262
34.311	-12.146	12.245
34.061	-12.164	12.132
33.759	-12.195	12.106
33.509	-12.207	11.994
33.206	-12.237	11.968
32.956	-12.256	11.856
32.654	-12.280	11.830
32.369	-12.299	11.753
32.179	-12.299	11.563
32.067	-12.280	11.243
31.989	-12.256	10.889
36.849	-10.156	-4.138
36.689	-10.156	-4.298
36.530	-10.156	-4.458
36.426	-10.138	-4.699
36.327	-10.126	-4.937
36.227	-10.114	-5.174
36.133	-10.095	-5.407
36.033	-10.083	-5.645
35.934	-10.065	-5.882
35.839	-10.053	-6.115
35.679	-10.053	-6.275
35.582	-10.034	-6.510
35.423	-10.034	-6.670
35.328	-10.022	-6.903
35.168	-10.022	-7.062
35.008	-10.022	-7.222
34.851	-10.022	-7.380
34.626	-10.034	-7.466
34.467	-10.034	-7.626
34.307	-10.034	-7.785
34.082	-10.053	-7.872
33.858	-10.065	-7.958
33.697	-10.065	-8.119
33.406	-10.095	-8.134
33.179	-10.114	-8.222
32.952	-10.126	-8.312
32.724	-10.138	-8.401
32.563	-10.138	-8.562
32.335	-10.156	-8.653
32.174	-10.156	-8.814
31.910	-10.168	-8.870
16.793	-12.329	-3.547
16.746	-12.299	-3.871
16.659	-12.280	-4.164
16.539	-12.268	-4.423
16.495	-12.237	-4.743
16.375	-12.225	-5.002
16.331	-12.195	-5.321
16.215	-12.176	-5.576
16.094	-12.164	-5.835
16.055	-12.134	-6.150
15.939	-12.115	-6.404
15.745	-12.115	-6.598
15.628	-12.103	-6.853
15.438	-12.103	-7.043
15.244	-12.103	-7.237
15.054	-12.103	-7.427
14.860	-12.103	-7.621
14.588	-12.115	-7.755
14.320	-12.134	-7.885
14.048	-12.146	-8.018
13.777	-12.164	-8.152
13.505	-12.176	-8.286
13.233	-12.195	-8.420
12.957	-12.207	-8.558
12.767	-12.207	-8.748
-3.910	-14.587	-2.844
-3.892	-14.539	-3.241
-3.867	-14.502	-3.629
-3.849	-14.453	-4.026
-3.789	-14.404	-4.449
-3.763	-14.368	-4.838
-3.823	-14.331	-5.174
-3.884	-14.307	-5.511
-3.936	-14.270	-5.839
-4.082	-14.258	-6.124
-4.134	-14.233	-6.452
-4.272	-14.209	-6.728
-4.410	-14.197	-7.004
-4.643	-14.197	-7.237
-4.782	-14.185	-7.513
-5.006	-14.185	-7.738
-5.230	-14.185	-7.962
-5.541	-14.197	-8.135
-5.766	-14.197	-8.359
-6.085	-14.209	-8.541
-6.396	-14.233	-8.713
-6.620	-14.233	-8.938
36.866	-12.408	14.661
36.728	-12.390	14.385
36.581	-12.378	14.100
36.443	-12.360	13.824
36.253	-12.360	13.634
36.107	-12.347	13.349
35.917	-12.347	13.159
35.727	-12.347	12.970
35.537	-12.347	12.780
35.338	-12.347	12.581
35.097	-12.360	12.478
34.855	-12.378	12.374
34.605	-12.390	12.262
34.311	-12.421	12.245
34.061	-12.439	12.132
33.759	-12.470	12.106
33.509	-12.482	11.994
33.206	-12.512	11.968
32.956	-12.524	11.856
32.654	-12.561	11.830
32.369	-12.573	11.753
32.179	-12.573	11.563
31.981	-12.573	11.364
31.989	-12.524	10.889
36.918	-10.400	-3.862
36.849	-10.382	-4.138
36.689	-10.382	-4.298
36.530	-10.382	-4.458
36.426	-10.370	-4.699
36.327	-10.352	-4.937
36.227	-10.339	-5.174
36.133	-10.321	-5.407
36.033	-10.309	-5.645
35.934	-10.290	-5.882
35.839	-10.278	-6.115
35.679	-10.278	-6.275
35.582	-10.260	-6.510
35.423	-10.260	-6.670
35.328	-10.248	-6.903
35.168	-10.248	-7.062
35.008	-10.248	-7.222
34.851	-10.248	-7.380
34.626	-10.260	-7.466
34.467	-10.260	-7.626
34.307	-10.260	-7.785
34.082	-10.278	-7.872
33.923	-10.278	-8.031
33.697	-10.290	-8.119
33.472	-10.309	-8.206
33.245	-10.321	-8.295
33.019	-10.339	-8.383
32.791	-10.352	-8.473
32.563	-10.370	-8.562
32.335	-10.382	-8.653
32.174	-10.382	-8.814
32.012	-10.382	-8.975
16.793	-12.598	-3.547
16.670	-12.585	-3.808
16.549	-12.573	-4.067
16.539	-12.537	-4.423
16.418	-12.524	-4.682
16.375	-12.500	-5.002
16.331	-12.470	-5.321
16.215	-12.451	-5.576
16.094	-12.439	-5.835
16.055	-12.408	-6.150
15.939	-12.390	-6.404
15.745	-12.390	-6.598
15.628	-12.378	-6.853
15.438	-12.378	-7.043
15.244	-12.378	-7.237
15.054	-12.378	-7.427
14.860	-12.378	-7.621
14.588	-12.390	-7.755
14.320	-12.408	-7.885
14.048	-12.421	-8.018
13.777	-12.439	-8.152
13.505	-12.451	-8.286
13.233	-12.470	-8.420
13.038	-12.470	-8.614
12.767	-12.482	-8.748
-3.910	-14.917	-2.844
-3.806	-14.856	-3.292
-3.789	-14.807	-3.690
-3.763	-14.758	-4.078
-3.789	-14.734	-4.449
-3.763	-14.685	-4.838
-3.823	-14.661	-5.174
-3.884	-14.624	-5.511
-3.936	-14.600	-5.839
-3.996	-14.563	-6.175
-4.134	-14.551	-6.452
-4.272	-14.526	-6.728
-4.410	-14.514	-7.004
-4.557	-14.502	-7.289
-4.782	-14.502	-7.513
-5.006	-14.502	-7.738
-5.230	-14.502	-7.962
-5.541	-14.514	-8.135
-5.766	-14.514	-8.359
-6.085	-14.526	-8.541
-6.309	-14.526	-8.765
-6.620	-14.551	-8.938
37.013	-12.695	14.946
36.866	-12.671	14.661
36.728	-12.659	14.385
36.581	-12.646	14.100
36.443	-12.634	13.824
36.297	-12.610	13.539
36.107	-12.610	13.349
35.917	-12.610	13.159
35.727	-12.610	12.970
35.537	-12.610	12.780
35.338	-12.610	12.581
35.097	-12.634	12.478
34.855	-12.646	12.374
34.605	-12.659	12.262
34.311	-12.695	12.245
34.061	-12.707	12.132
33.759	-12.744	12.106
33.509	-12.756	11.994
33.206	-12.781	11.968
32.904	-12.817	11.942
32.654	-12.830	11.830
32.369	-12.842	11.753
32.119	-12.866	11.640
31.920	-12.866	11.442
31.929	-12.817	10.967
36.918	-10.626	-3.862
36.849	-10.614	-4.138
36.689	-10.614	-4.298
36.530	-10.614	-4.458
36.426	-10.596	-4.699
36.327	-10.583	-4.937
36.227	-10.565	-5.174
36.133	-10.547	-5.407
36.033	-10.535	-5.645
35.934	-10.516	-5.882
35.839	-10.504	-6.115
35.679	-10.504	-6.275
35.582	-10.486	-6.510
35.423	-10.486	-6.670
35.328	-10.474	-6.903
35.168	-10.474	-7.062
35.008	-10.474	-7.222
34.851	-10.474	-7.380
34.626	-10.486	-7.466
34.467	-10.486	-7.626
34.307	-10.486	-7.785
34.082	-10.504	-7.872
33.923	-10.504	-8.031
33.697	-10.516	-8.119
33.472	-10.535	-8.206
33.245	-10.547	-8.295
33.019	-10.565	-8.383
32.791	-10.583	-8.473
32.563	-10.596	-8.562
32.402	-10.596	-8.724
32.174	-10.614	-8.814
32.012	-10.614	-8.975
16.793	-12.878	-3.547
16.670	-12.866	-3.808
16.549	-12.842	-4.067
16.539	-12.817	-4.423
16.418	-12.805	-4.682
16.375	-12.769	-5.002
16.331	-12.744	-5.321
16.215	-12.720	-5.576
16.172	-12.695	-5.895
16.055	-12.671	-6.150
15.939	-12.659	-6.404
15.822	-12.646	-6.659
15.628	-12.646	-6.853
15.438	-12.646	-7.043
15.244	-12.646	-7.237
15.054	-12.646	-7.427
14.860	-12.646	-7.621
14.588	-12.659	-7.755
14.320	-12.671	-7.885
14.048	-12.695	-8.018
13.854	-12.695	-8.212
13.582	-12.707	-8.346
13.310	-12.720	-8.480
13.038	-12.744	-8.614
12.767	-12.756	-8.748
-3.823	-15.222	-2.895
-3.806	-15.185	-3.292
-3.789	-15.137	-3.690
-3.763	-15.088	-4.078
-3.703	-15.039	-4.501
-3.763	-15.002	-4.838
-3.823	-14.978	-5.174
-3.884	-14.941	-5.511
-3.936	-14.917	-5.839
-3.996	-14.880	-6.175
-4.134	-14.868	-6.452
-4.272	-14.856	-6.728
-4.410	-14.832	-7.004
-4.557	-14.819	-7.289
-4.782	-14.819	-7.513
-5.006	-14.819	-7.738
-5.230	-14.819	-7.962
-5.541	-14.832	-8.135
-5.766	-14.832	-8.359
-6.085	-14.856	-8.541
-6.309	-14.856	-8.765
-6.620	-14.868	-8.938
37.056	-12.952	14.851
36.866	-12.952	14.661
36.728	-12.927	14.385
36.581	-12.915	14.100
36.443	-12.903	13.824
36.297	-12.878	13.539
36.107	-12.878	13.349
35.969	-12.866	13.073
35.779	-12.866	12.883
35.537	-12.878	12.780
35.338	-12.878	12.581
35.097	-12.903	12.478
34.855	-12.915	12.374
34.605	-12.927	12.262
34.311	-12.964	12.245
34.061	-12.976	12.132
33.759	-13.013	12.106
33.509	-13.025	11.994
33.206	-13.062	11.968
32.904	-13.086	11.942
32.654	-13.110	11.830
32.317	-13.135	11.839
32.067	-13.159	11.727
31.868	-13.159	11.528
37.017	-10.870	-3.625
36.918	-10.858	-3.862
36.754	-10.858	-4.026
36.689	-10.840	-4.298
36.530	-10.840	-4.458
36.426	-10.822	-4.699
36.327	-10.809	-4.937
36.227	-10.791	-5.174
36.133	-10.779	-5.407
36.033	-10.761	-5.645
35.934	-10.742	-5.882
35.839	-10.730	-6.115
35.742	-10.712	-6.350
35.582	-10.712	-6.510
35.423	-10.712	-6.670
35.328	-10.693	-6.903
35.168	-10.693	-7.062
35.008	-10.693	-7.222
34.851	-10.693	-7.380
34.691	-10.693	-7.539
34.467	-10.712	-7.626
34.307	-10.712	-7.785
34.082	-10.730	-7.872
33.923	-10.730	-8.031
33.697	-10.742	-8.119
33.472	-10.761	-8.206
33.245	-10.779	-8.295
33.019	-10.791	-8.383
32.791	-10.809	-8.473
32.563	-10.822	-8.562
32.402	-10.822	-8.724
32.174	-10.840	-8.814
32.012	-10.840	-8.975
16.670	-13.135	-3.808
16.549	-13.123	-4.067
16.465	-13.110	-4.358
16.418	-13.074	-4.682
16.375	-13.049	-5.002
16.331	-13.013	-5.321
16.215	-13.001	-5.576
16.172	-12.964	-5.895
16.055	-12.952	-6.150
15.939	-12.927	-6.404
15.822	-12.915	-6.659
15.628	-12.915	-6.853
15.438	-12.915	-7.043
15.244	-12.915	-7.237
15.054	-12.915	-7.427
14.860	-12.915	-7.621
14.588	-12.927	-7.755
14.398	-12.927	-7.945
14.126	-12.952	-8.079
13.854	-12.964	-8.212
13.582	-12.976	-8.346
13.310	-13.001	-8.480
13.038	-13.013	-8.614
12.844	-13.013	-8.808
-3.823	-15.552	-2.895
-3.720	-15.491	-3.344
-3.703	-15.442	-3.741
-3.763	-15.405	-4.078
-3.703	-15.369	-4.501
-3.763	-15.332	-4.838
-3.823	-15.295	-5.174
-3.884	-15.271	-5.511
-3.936	-15.234	-5.839
-3.996	-15.198	-6.175
-4.134	-15.185	-6.452
-4.272	-15.173	-6.728
-4.410	-15.149	-7.004
-4.557	-15.137	-7.289
-4.782	-15.137	-7.513
-5.006	-15.137	-7.738
-5.230	-15.137	-7.962
-5.541	-15.149	-8.135
-5.766	-15.149	-8.359
-6.085	-15.173	-8.541
-6.396	-15.185	-8.713
-6.620	-15.185	-8.938
37.151	-13.257	15.222
37.013	-13.232	14.946
36.866	-13.220	14.661
36.728	-13.208	14.385
36.581	-13.184	14.100
36.443	-13.171	13.824
36.297	-13.159	13.539
36.107	-13.159	13.349
35.969	-13.135	13.073
35.779	-13.135	12.883
35.537	-13.159	12.780
35.338	-13.159	12.581
35.097	-13.171	12.478
34.855	-13.184	12.374
34.605	-13.208	12.262
34.311	-13.232	12.245
34.061	-13.257	12.132
33.759	-13.281	12.106
33.509	-13.306	11.994
33.206	-13.330	11.968
32.904	-13.367	11.942
32.654	-13.379	11.830
32.317	-13.415	11.839
32.067	-13.428	11.727
31.868	-13.428	11.528
36.918	-11.084	-3.862
36.754	-11.084	-4.026
36.689	-11.066	-4.298
36.530	-11.066	-4.458
36.426	-11.053	-4.699
36.327	-11.035	-4.937
36.227	-11.017	-5.174
36.133	-11.005	-5.407
36.033	-10.986	-5.645
35.934	-10.968	-5.882
35.839	-10.956	-6.115
35.742	-10.937	-6.350
35.582	-10.937	-6.510
35.487	-10.919	-6.743
35.328	-10.919	-6.903
35.168	-10.919	-7.062
35.008	-10.919	-7.222
34.851	-10.919	-7.380
34.691	-10.919	-7.539
34.467	-10.937	-7.626
34.307	-10.937	-7.785
34.147	-10.937	-7.945
33.923	-10.956	-8.031
33.697	-10.968	-8.119
33.472	-10.986	-8.206
33.245	-11.005	-8.295
33.019	-11.017	-8.383
32.858	-11.017	-8.544
32.630	-11.035	-8.633
32.402	-11.053	-8.724
32.241	-11.053	-8.884
32.012	-11.066	-8.975
16.670	-13.415	-3.808
16.549	-13.403	-4.067
16.465	-13.379	-4.358
16.418	-13.354	-4.682
16.375	-13.318	-5.002
16.331	-13.281	-5.321
16.215	-13.269	-5.576
16.172	-13.232	-5.895
16.055	-13.220	-6.150
15.939	-13.208	-6.404
15.822	-13.184	-6.659
15.628	-13.184	-6.853
15.438	-13.184	-7.043
15.244	-13.184	-7.237
15.054	-13.184	-7.427
14.860	-13.184	-7.621
14.588	-13.208	-7.755
14.398	-13.208	-7.945
14.126	-13.220	-8.079
13.854	-13.232	-8.212
13.582	-13.257	-8.346
13.310	-13.269	-8.480
13.116	-13.269	-8.674
12.844	-13.281	-8.808
-3.746	-15.869	-2.956
-3.642	-15.796	-3.405
-3.703	-15.771	-3.741
-3.642	-15.723	-4.164
-3.703	-15.686	-4.501
-3.763	-15.649	-4.838
-3.823	-15.625	-5.174
-3.884	-15.588	-5.511
-3.936	-15.552	-5.839
-3.996	-15.527	-6.175
-4.134	-15.503	-6.452
-4.272	-15.491	-6.728
-4.410	-15.479	-7.004
-4.557	-15.454	-7.289
-4.782	-15.454	-7.513
-5.006	-15.454	-7.738
-5.317	-15.479	-7.910
-5.541	-15.479	-8.135
-5.843	-15.491	-8.299
-6.085	-15.491	-8.541
-6.396	-15.503	-8.713
-6.620	-15.503	-8.938
37.350	-13.525	15.421
37.151	-13.525	15.222
37.013	-13.513	14.946
36.866	-13.489	14.661
36.728	-13.477	14.385
36.581	-13.464	14.100
36.443	-13.440	13.824
36.297	-13.428	13.539
36.107	-13.428	13.349
35.969	-13.415	13.073
35.779	-13.415	12.883
35.589	-13.415	12.693
35.338	-13.428	12.581
35.097	-13.440	12.478
34.855	-13.464	12.374
34.605	-13.477	12.262
34.363	-13.489	12.158
34.061	-13.525	12.132
33.759	-13.562	12.106
33.509	-13.574	11.994
33.206	-13.611	11.968
32.904	-13.648	11.942
32.568	-13.672	11.951
32.317	-13.696	11.839
32.067	-13.709	11.727
31.817	-13.721	11.614
36.918	-11.316	-3.862
36.754	-11.316	-4.026
36.594	-11.316	-4.186
36.530	-11.298	-4.458
36.426	-11.279	-4.699
36.327	-11.261	-4.937
36.227	-11.249	-5.174
36.133	-11.231	-5.407
36.033	-11.212	-5.645
35.934	-11.194	-5.882
35.839	-11.182	-6.115
35.742	-11.163	-6.350
35.582	-11.163	-6.510
35.487	-11.145	-6.743
35.328	-11.145	-6.903
35.168	-11.145	-7.062
35.008	-11.145	-7.222
34.851	-11.145	-7.380
34.691	-11.145	-7.539
34.531	-11.145	-7.699
34.307	-11.163	-7.785
34.147	-11.163	-7.945
33.923	-11.182	-8.031
33.697	-11.194	-8.119
33.538	-11.194	-8.278
33.311	-11.212	-8.367
33.084	-11.231	-8.455
32.858	-11.249	-8.544
32.630	-11.261	-8.633
32.402	-11.279	-8.724
32.241	-11.279	-8.884
32.080	-11.279	-9.046
16.597	-13.709	-3.743
16.549	-13.672	-4.067
16.465	-13.660	-4.358
16.418	-13.623	-4.682
16.375	-13.599	-5.002
16.331	-13.562	-5.321
16.288	-13.525	-5.640
16.172	-13.513	-5.895
16.055	-13.489	-6.150
15.939	-13.477	-6.404
15.822	-13.464	-6.659
15.628	-13.464	-6.853
15.516	-13.440	-7.103
15.322	-13.440	-7.298
15.054	-13.464	-7.427
14.860	-13.464	-7.621
14.588	-13.477	-7.755
14.398	-13.477	-7.945
14.126	-13.489	-8.079
13.854	-13.513	-8.212
13.582	-13.525	-8.346
13.310	-13.538	-8.480
13.116	-13.538	-8.674
12.844	-13.562	-8.808
-3.823	-16.211	-2.895
-3.642	-16.126	-3.405
-3.703	-16.089	-3.741
-3.763	-16.065	-4.078
-3.703	-16.016	-4.501
-3.763	-15.979	-4.838
-3.823	-15.942	-5.174
-3.884	-15.906	-5.511
-3.936	-15.881	-5.839
-3.996	-15.845	-6.175
-4.134	-15.832	-6.452
-4.272	-15.808	-6.728
-4.410	-15.796	-7.004
-4.557	-15.771	-7.289
-4.782	-15.771	-7.513
-5.006	-15.771	-7.738
-5.317	-15.796	-7.910
-5.541	-15.796	-8.135
-5.843	-15.808	-8.299
-6.171	-15.832	-8.489
-6.396	-15.832	-8.713
-6.706	-15.845	-8.886
37.350	-13.794	15.421
37.151	-13.794	15.222
37.013	-13.782	14.946
36.866	-13.770	14.661
36.728	-13.745	14.385
36.581	-13.733	14.100
36.443	-13.721	13.824
36.297	-13.696	13.539
36.158	-13.684	13.263
35.969	-13.684	13.073
35.779	-13.684	12.883
35.589	-13.684	12.693
35.338	-13.696	12.581
35.149	-13.696	12.391
34.907	-13.721	12.288
34.605	-13.745	12.262
34.363	-13.770	12.158
34.061	-13.794	12.132
33.811	-13.818	12.020
33.509	-13.855	11.994
33.206	-13.879	11.968
32.904	-13.916	11.942
32.654	-13.940	11.830
32.317	-13.965	11.839
32.067	-13.989	11.727
31.817	-14.002	11.614
36.918	-11.542	-3.862
36.754	-11.542	-4.026
36.594	-11.542	-4.186
36.530	-11.523	-4.458
36.426	-11.505	-4.699
36.327	-11.493	-4.937
36.227	-11.475	-5.174
36.133	-11.456	-5.407
36.033	-11.438	-5.645
35.934	-11.420	-5.882
35.839	-11.407	-6.115
35.742	-11.389	-6.350
35.582	-11.389	-6.510
35.487	-11.371	-6.743
35.328	-11.371	-6.903
35.168	-11.371	-7.062
35.008	-11.371	-7.222
34.851	-11.371	-7.380
34.691	-11.371	-7.539
34.531	-11.371	-7.699
34.307	-11.389	-7.785
34.147	-11.389	-7.945
33.923	-11.407	-8.031
33.763	-11.407	-8.191
33.538	-11.420	-8.278
33.311	-11.438	-8.367
33.084	-11.456	-8.455
32.858	-11.475	-8.544
32.630	-11.493	-8.633
32.469	-11.493	-8.794
32.241	-11.505	-8.884
32.080	-11.505	-9.046
16.644	-14.026	-3.420
